# .PCD v0.7 - Point Cloud Data file format
VERSION 0.7
FIELDS x y z
SIZE 4 4 4
TYPE F F F
COUNT 1 1 1
WIDTH 1729
HEIGHT 1
VIEWPOINT 0 0 0 1 0 0 0
POINTS 1729
DATA ascii
16.437599 133.9747 -4.4966002
-16.7062 136.40331 -4.5146999
16.704901 136.40331 -4.5134001
-14.9104 150.9254 -4.4864001
14.9101 150.9231 -4.4835
-11.987 151.74249 -4.4954
11.9854 151.7359 -4.4833999
-10.0101 152.8551 -4.5325999
10.0078 152.8513 -4.5254998
-9.3829002 153.06531 -4.4962001
9.3822002 153.0636 -4.4935002
-7.0353999 153.26579 -4.4802999
7.0352001 153.26559 -4.4801998
-16.181101 106.8915 -4.4126
16.2083 106.8922 -4.4123001
-14.4037 110.0737 -4.4453001
14.4894 110.0789 -4.4313002
-14.3989 111.1582 -4.4171
-13.8171 121.2372 -4.4116001
-16.196501 133.1778 -4.4324002
16.1957 133.1788 -4.4334998
-19.041901 146.4776 -4.4775
19.041401 146.4761 -4.4780998
-5.1374998 155.6514 -4.4299998
5.1373 155.6514 -4.4299002
-5.1046 156.5596 -4.4689999
5.1044998 156.55949 -4.4689002
14.4877 111.1618 -4.4077001
-13.5718 119.0328 -4.3888001
13.5708 119.034 -4.3871999
13.8162 121.2375 -4.4026999
-14.7167 128.3835 -4.3505998
14.7156 128.3835 -4.3484001
-15.3663 130.5054 -4.3717999
15.3647 130.5042 -4.3704
-18.071699 142.5407 -4.3657999
18.071501 142.5401 -4.3662
-10.5852 152.4595 -4.3895998
10.5815 152.4537 -4.3783002
-7.8554001 153.1158 -4.3712001
7.8551998 153.116 -4.3719001
-5.25 154.8289 -4.3892999
5.2498002 154.8287 -4.3891001
-16.504601 106.0506 -4.3179998
16.5133 106.0509 -4.3178
-15.8247 132.2168 -4.2908001
15.8244 132.2175 -4.2912998
-16.2456 133.52541 -4.3204999
16.244699 133.5262 -4.3214998
-18.283001 148.5278 -4.2841001
18.279699 148.5256 -4.2814002
-13.7469 151.0513 -4.3154998
13.7468 151.0477 -4.3101001
-5.5065999 154.1264 -4.3070998
5.5065999 154.1259 -4.3067999
-16.7857 105.1166 -4.2578001
16.7873 105.1168 -4.2578001
-14.9645 129.5643 -4.2477002
14.9632 129.56329 -4.2466002
-16.6003 136.9491 -4.2202001
16.5989 136.94971 -4.2182999
-4.8442001 156.70531 -4.2013001
4.8442001 156.7054 -4.2012
-13.5439 119.66 -4.1824002
13.5427 119.6608 -4.1794
-14.0248 122.7257 -4.1914001
14.0244 122.7262 -4.1890998
-14.4248 126.1105 -4.1610999
14.4202 126.1122 -4.1497002
-15.367 130.75121 -4.1971002
15.3659 130.7507 -4.1964002
-16.0571 133.2067 -4.1444001
16.0562 133.2075 -4.1455002
-15.8005 150.41229 -4.1901002
15.7984 150.4099 -4.1873999
-11.1283 151.9689 -4.1490998
11.1248 151.9622 -4.1363001
-8.6833 152.99969 -4.1987
8.6829996 152.9991 -4.198
-5.9064999 153.54041 -4.1883998
5.9066 153.5396 -4.1876001
-4.8573999 155.7603 -4.1384001
4.8572001 155.76041 -4.1384001
-14.2821 113.1761 -4.0647001
14.3327 113.1766 -4.0634999
-14.2376 113.7056 -4.0967002
14.2734 113.7058 -4.0960999
-14.1545 114.2303 -4.0915999
14.1752 114.2301 -4.0913
-14.0367 114.7575 -4.0769
14.0461 114.7573 -4.0767999
-14.2592 125.0429 -4.0794001
14.258 125.0433 -4.0759001
-14.5097 127.3965 -4.0696001
14.5071 127.3974 -4.0633998
-15.791 132.5049 -4.0745001
15.7908 132.5058 -4.0753002
-16.893499 138.778 -4.0819998
16.892799 138.7789 -4.0808001
-17.2957 140.1201 -4.0799999
17.295401 140.1205 -4.0798001
-18.335899 144.0083 -4.1276999
18.3356 144.0062 -4.1286998
-18.4499 147.0918 -4.0804
18.4489 147.0899 -4.0802002
-17.495501 149.168 -4.1217999
17.4916 149.1653 -4.1178999
-16.6651 149.81129 -4.0795002
16.661699 149.8087 -4.0760002
-12.6788 151.2218 -4.0895
12.6774 151.2164 -4.0798001
-4.9411001 154.9005 -4.0806999
4.9408998 154.9005 -4.0806999
-14.762 108.4215 -4.0514002
14.8174 108.4233 -4.0479999
-14.4347 108.9819 -4.0075002
14.4923 108.9855 -3.9983001
-13.9018 115.2827 -4.052
13.904 115.2825 -4.0521002
-13.7673 115.8014 -4.0165
13.7669 115.8012 -4.0167999
-14.0912 124.0027 -4.0095
14.0912 124.0033 -4.0096002
-15.3534 131.047 -4.0064998
15.3527 131.0468 -4.0063
-18.4625 145.54871 -4.0184999
18.4622 145.54601 -4.0194001
-6.4537001 153.1032 -4.0548
6.4538002 153.1028 -4.0542998
-5.1275001 154.14461 -4.0096002
5.1276002 154.1443 -4.0095
-4.5342002 156.8716 -4.0049
4.5342999 156.8719 -4.0047998
-15.1728 107.8542 -3.9484999
15.2154 107.8554 -3.9477
-14.2839 112.6341 -3.9684999
14.3452 112.635 -3.9661
-13.6419 116.3056 -3.9661
13.6411 116.3055 -3.9663
-14.9418 129.7728 -3.9668
14.9403 129.7715 -3.9654
-14.5788 150.5218 -3.9244001
14.5776 150.519 -3.9208
-13.534 116.7875 -3.8963001
13.533 116.7877 -3.8964
-13.5287 120.2827 -3.8875999
13.5271 120.2832 -3.8817999
-14.5752 128.7146 -3.905
14.5743 128.71429 -3.9038999
-17.618099 141.5215 -3.8972001
17.617901 141.5211 -3.8973999
9.8242998 152.45911 -3.8821001
-9.8290005 152.46429 -3.8929
-7.1719999 152.8815 -3.9119
7.1718001 152.88161 -3.9122
-5.4797001 153.5383 -3.8501
-4.5311999 155.8815 -3.9103
4.5313001 155.8817 -3.9102001
-4.2291002 157.0864 -3.8520999
4.2293 157.08681 -3.852
-15.593 107.2317 -3.7814
15.6191 107.2328 -3.7813001
-14.2295 110.594 -3.8162999
14.2914 110.5974 -3.8053
-13.443 117.2639 -3.8103001
13.4419 117.2644 -3.8103001
-13.7921 121.7652 -3.8331001
13.7914 121.7659 -3.8271999
-15.3247 131.367 -3.8020999
15.3241 131.36729 -3.8022001
-15.7311 132.7038 -3.8445001
15.7306 132.7047 -3.8455
-16.4807 137.43719 -3.7994001
16.479401 137.4382 -3.7974
-17.7668 147.77811 -3.7814
17.7651 147.7762 -3.7801001
-11.6948 151.42171 -3.8136001
11.6922 151.41521 -3.8018
-9.2967997 152.6674 -3.8452001
9.2939997 152.66431 -3.8395
5.48 153.5378 -3.8497
-4.5949998 154.9736 -3.8167
4.5948 154.97369 -3.8167
-14.1882 109.5237 -3.7518001
14.2385 109.5284 -3.7386999
-14.2392 112.0904 -3.7678001
14.3025 112.0916 -3.7639999
-13.3682 117.7514 -3.7116001
13.367 117.7523 -3.7112999
-14.9222 129.9897 -3.7337
14.9209 129.98869 -3.7326
-10.3193 152.0959 -3.7606001
10.3134 152.0892 -3.7460999
-7.9612999 152.7919 -3.7639
7.961 152.79179 -3.7639999
-4.7356 154.1635 -3.7493999
4.7356 154.16341 -3.7493999
-4.1584001 156.02901 -3.7534001
4.1587 156.0295 -3.7535
-3.9833 157.3773 -3.7149
-14.1864 125.2777 -3.6603999
14.184 125.2783 -3.6544001
-14.3008 126.4453 -3.7044001
14.2966 126.4469 -3.6942999
-15.707 132.9055 -3.6768
15.7062 132.9063 -3.6779001
-15.7805 133.20171 -3.6475
15.7797 133.20219 -3.6485
-15.8938 133.5851 -3.6767001
15.8931 133.58521 -3.6775
-15.9892 134.0479 -3.6847
15.9884 134.04761 -3.6851001
-16.051001 134.5612 -3.6586001
16.049999 134.56059 -3.6586001
-17.8412 143.0031 -3.6756001
17.8409 143.00101 -3.6761
-15.4161 149.92529 -3.6415
-13.4315 150.6796 -3.6586001
13.4302 150.6758 -3.6526
-5.9445 153.0378 -3.6745
5.9450002 153.03729 -3.674
-3.8173001 156.27139 -3.642
3.8176 156.27209 -3.6421001
-15.9485 106.5058 -3.6328001
15.9608 106.5066 -3.6329
-13.3052 118.2697 -3.5948999
13.3039 118.2709 -3.5941
-14.3138 127.7734 -3.5748999
14.3119 127.7739 -3.5711999
-15.2798 131.6859 -3.5859001
15.2795 131.6866 -3.5864
-16.0639 135.09579 -3.5857999
16.0625 135.095 -3.5853
-17.9063 146.2048 -3.5725
17.906 146.20171 -3.5727999
-17.018801 148.5038 -3.5962999
17.0166 148.50191 -3.5940001
15.414 149.92281 -3.6387999
-8.6787004 152.63901 -3.5774
8.6773005 152.63741 -3.5748
-5.0201998 153.508 -3.6054001
5.0208001 153.5078 -3.6054001
-4.2091999 155.0584 -3.6110001
4.2091999 155.0585 -3.6110001
-16.2488 105.6882 -3.5058
16.2519 105.6886 -3.506
-13.9001 123.1152 -3.5566001
13.9001 123.1159 -3.5567
-14.0002 124.2536 -3.5241001
14.0001 124.2539 -3.5242
-14.5043 128.9809 -3.5408001
14.5034 128.9803 -3.5399001
-14.8941 130.23309 -3.5186999
14.8933 130.2325 -3.5183001
-17.932199 144.5798 -3.543
17.932199 144.5759 -3.5436001
-16.232401 149.2361 -3.5409
16.2299 149.2339 -3.5383999
-3.586 156.6772 -3.55
3.5864 156.6779 -3.55
-13.2497 118.8387 -3.4549
13.2482 118.8398 -3.4535999
-13.4997 120.8674 -3.4744999
13.4981 120.8678 -3.4672999
-16.028999 135.62781 -3.4418001
16.027399 135.6272 -3.4409001
-16.843 139.18581 -3.4349999
16.8424 139.1862 -3.4346001
-10.8115 151.629 -3.4885001
10.8068 151.6219 -3.4749999
-6.5433998 152.7001 -3.4914999
6.5436001 152.7001 -3.4916
-4.3343 154.1946 -3.4913001
4.3340998 154.1944 -3.4912
-3.7814 155.1649 -3.4776001
3.7816999 155.16521 -3.4775
-3.4224 157.1488 -3.4542
3.4226 157.1496 -3.4540999
-16.503599 104.7905 -3.4036
16.5037 104.7907 -3.4038999
-14.1438 111.556 -3.4228001
14.1963 111.5572 -3.4177999
-15.2307 131.9803 -3.3703001
15.2305 131.98129 -3.3710999
-17.168501 140.54491 -3.3661001
17.1681 140.5448 -3.3663001
-12.3397 150.85651 -3.3856001
12.3379 150.85159 -3.3773
-5.4576001 153.0047 -3.3631001
5.4587002 153.0043 -3.3627999
-4.5518999 153.474 -3.3870001
4.5524001 153.47369 -3.3870001
-3.2948 155.3311 -3.3873
3.2955 155.3316 -3.3873
-3.1579001 156.07539 -3.4042001
3.1585 156.0761 -3.4043
-14.5076 107.921 -3.3441999
14.5304 107.9227 -3.3417001
-14.1685 108.4502 -3.3141999
14.1931 108.4533 -3.3071001
-14.846 130.5208 -3.2923999
14.8454 130.5206 -3.2923
-16.4105 137.8864 -3.2901001
-9.6086998 152.12151 -3.3227
9.6022997 152.116 -3.3113999
-9.1767998 152.31779 -3.3141999
9.1724997 152.3139 -3.3069999
-7.2670002 152.57539 -3.3157001
7.2670002 152.57561 -3.3160999
-3.0313001 156.6619 -3.3412001
3.0316 156.6624 -3.3412001
-14.9115 107.3815 -3.2399001
14.9272 107.3826 -3.2395
-13.1996 119.432 -3.2602
13.198 119.4327 -3.2579999
-14.0751 125.5616 -3.2237999
-14.4688 129.215 -3.2407999
14.4677 129.2141 -3.2399001
16.4095 137.8871 -3.2888
-17.248899 146.9538 -3.2354
17.248301 146.9511 -3.2351999
-14.2061 150.0567 -3.2876
14.2044 150.0537 -3.2839
-3.9126 154.2332 -3.2755001
3.9124 154.2326 -3.2751
-2.7365999 154.9628 -3.2216001
2.7381001 154.963 -3.2214999
-2.7284 155.6653 -3.2869
2.7293999 155.6658 -3.2869999
-2.6392 156.2874 -3.2437
2.6396999 156.2878 -3.2437999
-2.9124999 157.1819 -3.2263999
2.9126 157.1823 -3.2263
-14.0195 110.0349 -3.2191999
14.0543 110.0381 -3.2090001
-13.7044 122.2221 -3.1863999
13.7041 122.2232 -3.1849999
14.0718 125.5624 -3.2161
-14.1199 126.8186 -3.2095001
14.1166 126.8197 -3.2021
-15.1893 132.2271 -3.1677001
15.1891 132.2281 -3.1686001
-15.9476 136.1337 -3.2023001
15.946 136.1335 -3.2011001
-17.3694 142.0098 -3.1921999
17.369101 142.00819 -3.1926
-8.0105 152.4753 -3.1800001
8.0100002 152.4747 -3.1791
-2.3176 155.38139 -3.1900001
2.319 155.3819 -3.1902001
-2.2574999 155.9926 -3.1530001
2.2583001 155.9931 -3.1531999
-13.9095 108.9653 -3.0941999
13.9309 108.9692 -3.0841
-13.9085 124.4912 -3.0927
13.9081 124.491 -3.0919001
-14.1315 128.1239 -3.1077001
14.1303 128.1239 -3.1059
-11.335 151.0741 -3.1127
11.3322 151.06799 -3.1027999
-10.0048 151.75729 -3.1433001
9.9975004 151.7507 -3.1296999
-5.9777002 152.603 -3.1326001
5.9784999 152.6028 -3.1324
-4.9431 152.9391 -3.1443
4.9445 152.939 -3.1443
-4.0987 153.46091 -3.1273999
4.0984998 153.4599 -3.1266999
-3.4597001 154.2742 -3.1422
3.4597001 154.2733 -3.1414001
-2.3164999 154.7278 -3.135
2.3185999 154.72791 -3.135
-1.9455 155.15849 -3.1055
1.9468 155.1591 -3.1057
-2.5422001 156.84219 -3.1300001
2.5425999 156.8427 -3.1301
-15.3137 106.7836 -3.0718999
15.3213 106.7846 -3.0722001
-14.7815 130.83279 -3.0599999
14.781 130.8329 -3.0601001
-17.434999 143.595 -3.0520999
17.435101 143.59061 -3.0523
-17.386 145.26939 -3.0488
17.386299 145.2646 -3.049
-16.5242 147.75591 -3.0227001
16.523001 147.7538 -3.0218
-14.9889 149.3537 -3.0325999
14.9868 149.3512 -3.0302
-8.6438999 152.2879 -3.0659001
8.6415997 152.2856 -3.062
-3.0081 154.26849 -3.0632
3.0086999 154.2673 -3.0620999
-1.5921 154.4248 -3.0163
1.5939 154.4256 -3.0165
-1.9466 154.5569 -3.0711999
1.9489 154.5573 -3.0713999
-1.5853 154.9765 -3.0265
1.5862 154.9776 -3.0264001
-1.898 155.7448 -3.0606
1.8989 155.74561 -3.0606999
-2.1795001 156.5535 -3.0351
2.1803 156.55409 -3.0353999
-13.9993 111.0197 -2.9855001
14.0344 111.0209 -2.9798
-13.7674 113.7395 -2.9440999
13.7843 113.7394 -2.9438
-13.6939 114.2239 -2.9570999
13.7032 114.2237 -2.957
-13.5933 114.7235 -2.9653001
13.5968 114.7232 -2.9655001
-13.4768 115.2299 -2.9660001
13.4768 115.2296 -2.9665
-13.3558 115.7344 -2.9565001
13.3547 115.7342 -2.9568999
-13.1533 120.023 -2.9793
13.1511 120.0234 -2.9754
-13.7402 123.4476 -2.9821999
13.7406 123.4483 -2.9835
-14.4332 129.44949 -2.9877999
14.4323 129.44859 -2.9874001
-15.1753 132.4742 -3.0039001
15.1751 132.4749 -3.0048001
-15.7662 148.5713 -2.9496
15.7645 148.5692 -2.9482
-13.0346 150.2289 -2.9523001
13.0333 150.22569 -2.9477999
-4.4211001 152.86591 -2.9445
4.4221001 152.8654 -2.9440999
-1.5464 153.89391 -2.9425001
1.5496 153.8943 -2.9428
-1.875 153.9568 -2.9598999
1.8783 153.9563 -2.9597001
-2.2111001 154.03951 -2.9774001
2.2135999 154.0383 -2.9765
-2.5903001 154.1669 -3.01
2.5919001 154.1655 -3.0088999
-1.2180001 154.3058 -2.9563999
1.2187999 154.3071 -2.9563
-1.2105 154.8157 -2.9458001
1.2105 154.8174 -2.9452
-1.5438 155.53169 -2.9668
1.5444 155.533 -2.9667001
-2.4477999 157.341 -2.9596
-15.6477 106.0793 -2.9109001
15.6507 106.0801 -2.9112999
-13.8106 113.264 -2.9044001
13.8347 113.2641 -2.9038
-13.239 116.228 -2.9312999
13.238 116.228 -2.9317
-13.1355 116.7014 -2.8849001
13.134 116.7018 -2.8855
-13.4305 121.3805 -2.9131999
13.4293 121.381 -2.9084001
-15.2083 132.76939 -2.9047999
15.2081 132.76981 -2.9054999
-15.8575 136.619 -2.8701
-9.0503998 152.0341 -2.9291
9.0455999 152.0302 -2.9219999
-6.6100998 152.38341 -2.8992
6.6104999 152.38361 -2.8996999
-3.6417 153.4481 -2.8938
3.6408 153.4458 -2.8922
-0.40959999 153.7141 -2.8728001
-0.00039999999 153.6933 -2.8743999
0.40920001 153.7148 -2.8728001
-0.80909997 153.763 -2.8803999
0.8096 153.76421 -2.8805001
-1.1896 153.8261 -2.9098001
1.1916 153.8271 -2.9101
-0.4174 154.13699 -2.8793001
-0.00050000002 154.1089 -2.8719001
0.4165 154.13789 -2.8791001
-0.82590002 154.2074 -2.9059
0.82560003 154.20889 -2.9056001
-0.8204 154.6853 -2.8775001
0.81959999 154.6873 -2.8766999
-1.1782 155.34081 -2.8722999
1.178 155.3428 -2.8715
-1.8307 156.2995 -2.9342999
1.832 156.3006 -2.9347
-13.82 112.791 -2.8157001
13.849 112.7913 -2.8145001
-13.0429 117.1688 -2.8215001
13.0409 117.1696 -2.8222001
-14.7045 131.1488 -2.8269999
14.704 131.14931 -2.8274
-15.2584 133.11929 -2.8347001
15.2582 133.119 -2.8350999
15.8562 136.61909 -2.869
-10.4304 151.2832 -2.8282001
10.425 151.27679 -2.8166001
-9.2918997 151.8185 -2.8024001
-5.4372001 152.5358 -2.8436999
5.4387002 152.53551 -2.8434999
-0.77929997 153.3513 -2.8101001
-0.39610001 153.3192 -2.8185
-0.00019999999 153.3045 -2.8275001
0.396 153.31979 -2.8185999
0.78039998 153.35229 -2.8104
-1.7467 153.39819 -2.8020999
-1.4630001 153.4109 -2.8266001
-1.1378 153.3886 -2.8211
1.1407 153.38921 -2.8213999
1.4673001 153.4104 -2.8266001
1.7505 153.3959 -2.8009
-0.00060000003 154.5593 -2.8213999
-0.4145 154.5945 -2.8357999
0.41330001 154.59579 -2.8352001
-1.4852 156.0728 -2.8313999
1.4866 156.0744 -2.8316
-2.0941999 157.06731 -2.8522999
2.0950999 157.0679 -2.8527
-15.9219 105.2873 -2.7623
15.9226 105.2877 -2.7625999
-12.9589 117.6446 -2.7453001
12.9565 117.6456 -2.7456999
-13.9039 125.9096 -2.7375
13.9007 125.9099 -2.7302001
-14.3845 129.7043 -2.7535
14.3839 129.7036 -2.7535
-15.296 133.53 -2.7577
15.2954 133.5293 -2.7579999
-16.689699 139.6469 -2.7627001
16.6891 139.6469 -2.763
9.2853003 151.8136 -2.793
-7.3278999 152.27251 -2.7435999
7.3278999 152.27251 -2.7437
-0.00019999999 152.9346 -2.7300999
-3.1621001 153.4147 -2.7535999
-2.0265999 153.37601 -2.7597001
2.029 153.3719 -2.7571001
3.1610999 153.4109 -2.7509
-0.40369999 155.07851 -2.7395
0.4025 155.08 -2.7386
-0.79890001 155.1853 -2.7916
0.79799998 155.1877 -2.7902999
-1.1322 155.8658 -2.7302001
-1.7536 156.81931 -2.7413001
1.7553 156.8205 -2.7420001
-13.7974 124.7529 -2.6710999
13.7963 124.7525 -2.6691
-13.8803 127.2122 -2.6944001
13.8778 127.2128 -2.6895001
-14.031 128.41879 -2.7256
14.03 128.4184 -2.7247
-15.3078 133.9826 -2.6668
15.3067 133.98151 -2.6670001
-16.326 138.33611 -2.7181001
16.325199 138.3364 -2.7179999
-16.900999 141.0585 -2.6698999
16.900499 141.0576 -2.6702001
-16.732 146.0654 -2.6666
16.732 146.0616 -2.6666
-11.9187 150.442 -2.6696999
11.9172 150.43781 -2.6638
-8.0318003 152.1189 -2.677
8.0309 152.1178 -2.6754999
3.9112 152.8078 -2.6882
-3.9116001 152.8101 -2.6902001
-0.3818 152.94569 -2.7189
0.3818 152.94611 -2.7189
-1.357 153.0029 -2.6903999
-1.0753 153.00529 -2.7052
-0.74589998 152.9718 -2.7042
0.74699998 152.9722 -2.7042999
1.0779999 153.00481 -2.7051001
1.3609 153.0005 -2.6895001
-2.3404 153.3696 -2.7112999
2.3412001 153.36459 -2.7079999
-2.7112 153.3817 -2.6961999
2.7107 153.37669 -2.6928
-0.00060000003 155.0376 -2.7204001
1.1327 155.8681 -2.7296
-14.1793 107.3885 -2.6600001
14.1857 107.3896 -2.6585
-13.8195 107.8896 -2.6454
13.8271 107.8917 -2.641
-13.7461 109.4626 -2.6285
13.7597 109.4653 -2.6208999
-13.7905 112.3134 -2.6566
13.8201 112.3139 -2.6547
-12.8821 118.1463 -2.6487
12.8795 118.1474 -2.6486001
-13.0856 120.5848 -2.5903001
-14.6332 131.4525 -2.6054001
14.6328 131.45329 -2.6057999
-13.7509 149.49451 -2.6008999
13.7495 149.4922 -2.5985
-8.6632004 151.9295 -2.6492
8.6599998 151.9265 -2.6443999
-4.8846002 152.44431 -2.6336
4.8864999 152.4442 -2.6336
-1.5779999 152.92149 -2.6284001
1.5812 152.916 -2.6255
-0.76779997 155.696 -2.6445
0.76730001 155.6983 -2.6431
-1.4177999 156.59241 -2.6313
1.4198 156.5941 -2.6317999
-14.5774 106.8736 -2.5632999
14.5809 106.8744 -2.5631001
-12.8107 118.6915 -2.5242
12.8082 118.6925 -2.5236001
13.0831 120.585 -2.5855999
-13.5281 122.6273 -2.5639
13.5284 122.6282 -2.5653
-15.2803 134.45799 -2.5546999
15.2789 134.4567 -2.5546999
-16.954399 142.61839 -2.5467999
16.9543 142.6151 -2.5469999
-9.6023998 151.42841 -2.5499001
9.5951996 151.423 -2.5395
-6.0001998 152.2489 -2.5594001
6.0009999 152.24899 -2.5596001
-0.37349999 152.5811 -2.5799
-0.00019999999 152.5705 -2.5897999
0.3734 152.5808 -2.5797
-1.0405999 152.6664 -2.5692999
-0.72680002 152.6129 -2.5674
0.72750002 152.61189 -2.5668001
1.0426 152.6638 -2.5680001
-1.2548 152.7382 -2.5808001
1.2575001 152.7339 -2.5787001
-1.7882 152.7966 -2.5246
-0.00050000002 155.5368 -2.5664001
-0.38800001 155.58051 -2.5878
0.38710001 155.582 -2.5868001
-1.0786 156.3817 -2.5269001
1.0798 156.3838 -2.5265
-13.541 108.379 -2.4605999
13.5479 108.3816 -2.4546001
-13.8069 110.4705 -2.5078001
13.8251 110.4716 -2.5028
-13.5929 123.7362 -2.5146
13.5931 123.7363 -2.5158
-14.3095 129.9994 -2.5093999
14.309 129.99899 -2.5095999
-16.885401 144.3082 -2.5153999
16.8857 144.30251 -2.5153999
-1.3571 152.5638 -2.4855001
1.3591 152.5562 -2.4814999
3.3942001 152.73981 -2.4519999
-3.3964 152.7451 -2.4563
1.7895 152.7877 -2.5195
-1.6767 157.3009 -2.4964001
-14.9598 106.3 -2.4087999
14.9605 106.3007 -2.4091001
-13.7171 111.8241 -2.4052
13.7411 111.8247 -2.4029
-13.9735 128.683 -2.4112999
13.9728 128.6823 -2.4109001
-14.5862 131.72749 -2.4066999
14.586 131.72839 -2.4073
-15.2279 134.9442 -2.404
15.2263 134.94299 -2.4037001
-15.7965 137.0896 -2.4479001
15.7955 137.08949 -2.4475
-16.007799 146.9263 -2.4157
16.007299 146.924 -2.4154999
-10.8941 150.69209 -2.4252
10.8913 150.6868 -2.4177001
-0.37779999 152.21249 -2.4078
-0.00019999999 152.1992 -2.4140999
0.37760001 152.211 -2.4068
-0.74010003 152.26289 -2.4044001
0.74040002 152.25951 -2.4022
-4.3260002 152.3445 -2.4394
-1.0721999 152.3622 -2.4205999
1.0732 152.356 -2.4171
4.3274002 152.3438 -2.4387
-2.0374 152.6633 -2.3847001
-0.36899999 156.0885 -2.3807001
-0.73079997 156.2072 -2.4395001
0.73079997 156.20911 -2.4384
-12.7401 119.2583 -2.3471
12.7378 119.259 -2.3457999
-15.251 147.81059 -2.3153999
15.2499 147.80881 -2.3148
-14.4894 148.6796 -2.3743
14.4879 148.6777 -2.3729
-8.8212004 151.5468 -2.3125
-6.6540999 152.0675 -2.3313
6.6545 152.06779 -2.3318
-1.4967999 152.34489 -2.3327999
1.4967999 152.3327 -2.3259001
-2.8573 152.6443 -2.3176999
2.0362 152.6517 -2.3778
2.8540001 152.6351 -2.3111999
-0.00030000001 156.0435 -2.3582001
0.36849999 156.08971 -2.3799
-1.3498 157.08299 -2.3776
1.3514 157.0843 -2.378
-15.2725 105.6225 -2.25
15.2724 105.623 -2.2505
-13.295 121.8389 -2.2931001
13.2945 121.8395 -2.2921
-14.2148 130.3175 -2.2636001
14.2144 130.3175 -2.2637999
8.8168001 151.5434 -2.3067
-8.0836 151.7171 -2.2413001
-7.362 151.89771 -2.2471001
7.3618999 151.8974 -2.2469001
-1.1528 152.0645 -2.2447
-5.4152002 152.1413 -2.289
5.4164 152.1412 -2.289
-2.3768001 152.5898 -2.289
2.3736 152.57761 -2.2813001
-1.0232 156.8791 -2.2693999
1.0242 156.88049 -2.2692001
-13.6436 125.0604 -2.2284
13.642 125.0599 -2.2254
-13.6742 126.306 -2.2247
13.6714 126.3058 -2.2186999
-13.6557 127.5913 -2.2144001
13.6539 127.5916 -2.2116001
-14.5627 132.00079 -2.2337999
14.5629 132.0016 -2.2342
-15.1647 135.42931 -2.1968999
15.1633 135.4283 -2.1967001
-12.5486 149.7074 -2.2337999
12.5477 149.7052 -2.2313001
-9.9589996 150.9194 -2.1973
9.9539003 150.91431 -2.1891
8.0824003 151.71561 -2.2393
-0.00019999999 151.8181 -2.2197001
-0.39140001 151.8358 -2.2162001
0.39109999 151.83299 -2.2144001
-0.77740002 151.91 -2.2195001
0.77710003 151.90401 -2.2156999
1.1525 152.0544 -2.2386999
3.7669001 152.24921 -2.1952
-3.7676001 152.2523 -2.1982
-0.69139999 156.7084 -2.1803
0.69150001 156.7097 -2.1795001
-13.4455 124.0116 -2.1038001
13.4455 124.0113 -2.1043999
-13.9207 128.9416 -2.1478
13.9202 128.9407 -2.1479001
-16.163099 138.826 -2.1098001
16.162399 138.826 -2.1101999
-16.416401 140.1792 -2.1008
16.4158 140.1787 -2.1013999
-1.6796 152.10339 -2.1250999
1.6768 152.0873 -2.1157
-0.34850001 156.59019 -2.1185
0.34830001 156.5909 -2.118
-15.5204 104.8629 -2.0959001
15.5205 104.8632 -2.0962999
-13.3866 108.8586 -2.0471001
13.3907 108.8605 -2.0429001
-13.5971 111.3167 -2.0840001
13.6128 111.3174 -2.0818
-12.6659 119.8246 -2.0929
12.6634 119.825 -2.0906999
-12.9716 121.0901 -2.0717001
12.9697 121.0901 -2.0685
-14.562 132.2997 -2.0892999
14.5633 132.2999 -2.0889001
-16.2248 145.13451 -2.086
16.224899 145.13 -2.0859001
-4.8329 152.0296 -2.0804999
4.8344002 152.0296 -2.0806
-0.00019999999 156.5443 -2.0943999
-13.7756 106.8203 -2.0269001
13.7758 106.8209 -2.0260999
-13.3794 107.288 -2.0132999
13.3802 107.289 -2.0114
-13.5516 109.8964 -2.0064001
13.5572 109.8976 -2.003
-13.3119 122.9871 -2.0109
13.3126 122.9875 -2.0134001
-14.1071 130.6418 -2.0239
14.1066 130.642 -2.0241001
15.716 137.5687 -1.9603
-16.481199 141.6777 -2.0251
16.4807 141.6758 -2.0253999
-16.4007 143.3439 -1.9784
16.4007 143.3394 -1.9783
-11.4046 149.9767 -1.9825
11.4033 149.9733 -1.9784
-9.0723 151.09399 -1.9923
9.0676003 151.0905 -1.9862
-0.41119999 151.4464 -2.0192001
-0.00030000001 151.4245 -2.023
0.41060001 151.44279 -2.017
-0.83020002 151.54221 -2.0169001
0.829 151.5343 -2.0121
-1.2651 151.74541 -2.0274
1.2627 151.73199 -2.0193999
-6.0124002 151.89729 -2.0062001
6.013 151.8976 -2.0065999
-3.1977999 152.1434 -1.9783
3.1945 152.13631 -1.9722
-14.1752 106.3336 -1.9488
14.175 106.334 -1.9486001
-12.919 115.1763 -1.9021
12.9172 115.176 -1.9033
-12.8136 115.6721 -1.915
12.812 115.6718 -1.9159
-12.7064 116.1593 -1.9124
12.7052 116.1593 -1.913
-13.8545 129.2164 -1.9069999
13.8542 129.2153 -1.9075
-14.5648 132.6364 -1.9574
14.5666 132.63589 -1.9565001
-15.1084 135.91341 -1.9247
15.1073 135.9127 -1.9248
-15.7167 137.569 -1.9598
-13.0685 107.7504 -1.8506
13.0698 107.7517 -1.8482
-13.1551 113.7419 -1.8276
13.1588 113.7418 -1.8274
-13.0957 114.1996 -1.854
13.0974 114.1993 -1.8541
-13.015 114.6816 -1.8803
13.0146 114.6813 -1.8811001
-12.6051 116.6284 -1.8877
12.6033 116.6289 -1.8886
-12.5065 117.0914 -1.8456
12.5039 117.0924 -1.847
-13.5199 127.9214 -1.8247
13.5187 127.9213 -1.8233
-14.5519 133.0235 -1.8221
14.5526 133.02229 -1.8216
-13.2104 148.845 -1.8795
13.2095 148.8439 -1.8786
-8.2248001 151.2644 -1.8589
8.2231998 151.2628 -1.8566
-6.6757998 151.6671 -1.841
6.6760001 151.6673 -1.8413
-1.9519 151.8089 -1.8233
-4.2495999 151.91479 -1.8892
4.2505999 151.91431 -1.8887
-2.6046 151.9938 -1.848
2.5994 151.9808 -1.839
-0.64999998 157.1916 -1.8811001
0.64999998 157.19231 -1.8806
-14.5401 105.7879 -1.8167
14.5398 105.7882 -1.8168
-13.1904 113.3 -1.785
13.1959 113.3002 -1.7847
-12.4076 117.5608 -1.7912
12.4044 117.5618 -1.7922
-14.0079 130.9574 -1.799
14.0073 130.9579 -1.7991
-15.4851 146.03419 -1.7861
15.4847 146.0318 -1.786
-10.3587 150.27879 -1.7834001
10.3564 150.2746 -1.7783
-0.00030000001 151.03371 -1.8056999
0.42820001 151.0564 -1.7937
-0.42910001 151.0602 -1.7961
-0.87480003 151.1711 -1.7733999
0.87290001 151.1627 -1.7683001
-7.4145999 151.4503 -1.8178
7.4144001 151.44991 -1.8173
1.946 151.79041 -1.812
-9.9999997e-05 157.036 -1.793
-0.32679999 157.08 -1.8178999
0.32659999 157.0804 -1.8175
-13.4283 110.7852 -1.7155
13.436 110.7859 -1.7138
-13.1989 112.8655 -1.7105
13.2057 112.8662 -1.7099
-12.3126 118.0518 -1.7146
12.3092 118.0527 -1.7151
-12.5626 120.3695 -1.7484
12.5599 120.3694 -1.7456
-13.0671 122.2595 -1.7039
13.0674 122.2597 -1.7053
-13.2857 124.3048 -1.6998
13.2854 124.3043 -1.6998
-13.4241 125.4356 -1.7341
13.4223 125.4344 -1.7307
-13.3875 126.7352 -1.7086
13.3847 126.7353 -1.7035
-14.5143 133.44839 -1.6849
14.5136 133.44679 -1.6851
-1.3541 151.40199 -1.7462
1.3501 151.3876 -1.7376
-5.3943 151.7542 -1.7483
5.3948998 151.7543 -1.7484
-14.8322 105.1434 -1.6684999
14.8321 105.1437 -1.6689
-13.7571 129.5287 -1.6607
13.7568 129.528 -1.6612
-14.6984 146.968 -1.6381
14.6976 146.9668 -1.6379
-13.9213 147.9127 -1.6624
13.9203 147.9118 -1.6619999
-9.3713999 150.52541 -1.6251
9.3683004 150.5219 -1.6204
-3.6616001 151.7977 -1.67
3.6607001 151.7953 -1.6676
-13.1771 112.4253 -1.5880001
13.184 112.4265 -1.5872
-12.2256 118.58 -1.6061
12.2226 118.5808 -1.6059999
-13.1048 123.3079 -1.5727
13.1054 123.308 -1.5748
-13.9384 131.2496 -1.5971
13.938 131.2505 -1.5973001
-14.443 133.89861 -1.5470001
14.4418 133.8972 -1.5473
-15.0767 136.3967 -1.5784
15.0758 136.3961 -1.579
-11.966 149.1232 -1.5401
-0.00039999999 150.661 -1.5493
-13.2953 106.2128 -1.473
13.2932 106.2131 -1.4723001
-12.9249 108.2216 -1.4815
12.9262 108.2227 -1.4804
-13.2185 109.2854 -1.4978
13.22 109.2867 -1.4966
-12.7857 121.553 -1.5019
12.7847 121.5528 -1.501
-13.4353 128.2218 -1.5077
13.4346 128.2213 -1.5073
-15.9005 139.37219 -1.5032001
15.8999 139.37199 -1.5039999
-16.0058 140.80051 -1.4848
16.005301 140.79961 -1.4852999
-15.7357 144.1824 -1.5045
15.7353 144.179 -1.5044
11.9652 149.1218 -1.5387
-0.43709999 150.6927 -1.5262001
0.43599999 150.68941 -1.524
-8.4341002 150.73689 -1.4987
8.4326 150.73531 -1.4965
-6.0145001 151.47 -1.5239
6.0148001 151.47031 -1.5242
-4.7912002 151.6302 -1.5375
-3.0667 151.66251 -1.4754
3.0636001 151.65691 -1.4704
4.7919002 151.6304 -1.5376
-13.7097 105.7641 -1.4262
13.708 105.7643 -1.4258
-12.8396 106.633 -1.4305
12.838 106.6333 -1.4295
-13.1212 111.9663 -1.4015
13.1269 111.9677 -1.4007
-12.1385 119.1269 -1.45
12.1359 119.1275 -1.4495
-13.6353 129.8624 -1.4176
13.635 129.86211 -1.4179
-13.8915 131.5385 -1.4131
13.8918 131.5394 -1.413
-15.57 138.0809 -1.4299999
15.5695 138.0806 -1.4309
-15.9322 142.4025 -1.4456
15.9317 142.39999 -1.4457
-0.88739997 150.8082 -1.4656
0.88520002 150.8013 -1.4612
-7.5310001 150.9295 -1.4473
7.5310998 150.9295 -1.447
-6.7132001 151.18089 -1.4272
6.7135 151.1812 -1.4274
-14.3648 134.3665 -1.3941
14.3636 134.3654 -1.3944
-10.7985 149.4938 -1.3466001
10.7976 149.4911 -1.3439
-1.3645999 151.0312 -1.3788
1.3605 151.0201 -1.3717999
-4.1932998 151.51151 -1.3478
-2.4632001 151.4937 -1.3578
2.4583001 151.4834 -1.3505
4.1935 151.51131 -1.3476
-14.0631 105.2542 -1.3200999
14.0623 105.2543 -1.3200001
-12.4777 107.0653 -1.2639
12.4772 107.0657 -1.2631
-13.1993 110.2212 -1.3168
13.2016 110.2223 -1.3161
-12.4047 120.872 -1.3003
12.4024 120.8716 -1.2981
-13.0875 124.6404 -1.2733001
13.0867 124.6397 -1.2726001
-5.3769999 151.3076 -1.2707
-1.8846 151.2852 -1.3235
1.8789999 151.27209 -1.3152
5.3772998 151.30791 -1.2709
-12.0431 119.6741 -1.2306
12.0406 119.6745 -1.2297
12.801 122.6418 -1.1903
-12.9007 123.6163 -1.1950999
12.9009 123.6161 -1.1962
-13.1476 125.8654 -1.2203
13.1453 125.8642 -1.2164
-13.1197 127.1572 -1.2379
13.1171 127.1577 -1.2337
-13.364 128.5119 -1.2460999
13.3637 128.51089 -1.2465
-13.8598 131.84399 -1.2416
13.8619 131.8443 -1.2405
-14.3065 134.84419 -1.212
14.3053 134.8434 -1.2124
-9.7153997 149.8374 -1.2197
9.7144003 149.8343 -1.2169
-0.43799999 150.3504 -1.2194
-0.00060000003 150.31371 -1.2584
0.4364 150.34779 -1.2177
-14.336 104.6502 -1.1848
14.336 104.6503 -1.1852
-13.0254 111.4826 -1.1651
13.0291 111.4841 -1.1647
-12.8003 122.642 -1.1878999
-13.4963 130.201 -1.1862
13.4958 130.201 -1.1864001
-15.027 136.8934 -1.1756001
15.0264 136.8929 -1.1766
-14.9715 145.0986 -1.1443
14.9707 145.09711 -1.1444
-12.5821 148.1181 -1.1382999
12.5811 148.1179 -1.1382999
-8.6904001 150.1105 -1.1296999
8.6899004 150.1088 -1.1281
-3.5901999 151.3839 -1.1533
3.5892 151.38271 -1.152
-13.8254 132.1803 -1.0735
13.8286 132.1797 -1.0717
-7.7072001 150.33949 -1.0973001
7.7077999 150.3398 -1.0972
-0.88249999 150.4641 -1.1197
0.88 150.4592 -1.1166
-6.8045001 150.6076 -1.0887001
6.8053999 150.6086 -1.0892
-6.0369 150.961 -1.1179
6.0373001 150.9614 -1.1183
-4.7624998 151.1813 -1.0567
4.7627001 151.1814 -1.0568
-13.233 105.1769 -0.98439997
13.2313 105.177 -0.98390001
-12.8024 105.5735 -1.0023
12.8004 105.5737 -1.0016
-12.7924 108.6516 -1.0005
12.794 108.6529 -1.0013
-13.2827 128.81371 -1.0125
13.2826 128.8125 -1.0132
-14.2747 135.3286 -0.9867
14.2736 135.328 -0.9874
-2.9886 151.24091 -0.98820001
2.9860001 151.2379 -0.98549998
-12.2916 105.9285 -0.92919999
12.2902 105.9286 -0.92860001
-12.3447 107.5507 -0.9382
12.3453 107.5509 -0.9386
-12.0994 115.6181 -0.9145
12.0969 115.6178 -0.91610003
-11.9982 116.1031 -0.93269998
11.9968 116.1031 -0.93360001
-11.8938 116.5691 -0.92820001
11.8922 116.5695 -0.92919999
-11.9135 120.205 -0.94230002
11.911 120.2048 -0.9411
-12.5023 121.9875 -0.95929998
12.5018 121.9868 -0.9601
-13.3641 130.53081 -0.97049999
13.3634 130.5312 -0.97060001
-15.5168 139.99091 -0.93690002
15.5163 139.9906 -0.93760002
-15.4803 141.5105 -0.92479998
15.4797 141.5094 -0.92519999
-15.2773 143.2326 -0.94510001
15.2765 143.2309 -0.94520003
-14.1203 146.0573 -0.91729999
14.1191 146.05701 -0.91759998
-0.001 149.9996 -0.9375
-1.3408999 150.6613 -0.9788
1.3367 150.6544 -0.97439998
-13.5758 104.7132 -0.90100002
13.5749 104.7132 -0.90079999
-12.8988 109.6167 -0.90539998
12.9002 109.6186 -0.9059
-12.8837 110.9683 -0.8933
12.8857 110.9698 -0.89319998
-12.2704 114.6312 -0.84570003
12.2678 114.6307 -0.847
-12.1919 115.1242 -0.88249999
12.1886 115.1237 -0.8847
-11.7855 117.0283 -0.90499997
11.7833 117.029 -0.90619999
-11.673 117.4928 -0.86659998
11.6705 117.4935 -0.86769998
-12.9469 127.5323 -0.86089998
12.945 127.5326 -0.85839999
-13.7706 132.5618 -0.89960003
13.7723 132.5605 -0.89859998
-15.3381 138.638 -0.8951
15.3376 138.6378 -0.8962
-13.2884 147.0625 -0.89230001
13.287 147.0627 -0.89270002
-11.29 148.5596 -0.89579999
11.2894 148.55859 -0.89490002
-0.43470001 150.03979 -0.8854
0.43220001 150.0374 -0.88459998
-5.3871002 150.7908 -0.866
5.3873 150.79111 -0.86619997
-1.8371 150.8844 -0.87489998
1.832 150.877 -0.87010002
-4.158 151.06889 -0.86930001
-2.3952999 151.076 -0.88679999
2.391 151.0704 -0.88270003
4.1577001 151.06889 -0.86919999
-12.3782 113.7035 -0.7748
12.3771 113.7038 -0.77460003
-12.3331 114.153 -0.80839998
12.3317 114.1528 -0.80849999
-11.5638 117.9763 -0.80449998
11.5612 117.977 -0.80510002
-12.1657 121.3414 -0.80339998
12.1637 121.3405 -0.80229998
-12.5483 122.9864 -0.78740001
12.5488 122.986 -0.78920001
-12.6936 123.9387 -0.82370001
12.6934 123.9385 -0.82429999
-12.8249 125.0431 -0.79500002
12.8235 125.0422 -0.79350001
-13.1681 129.1494 -0.77950001
13.168 129.1485 -0.7802
-13.2625 130.8381 -0.77429998
13.262 130.8391 -0.7744
-10.1015 149.0267 -0.78469998
10.1014 149.0244 -0.78310001
-6.1103001 150.3644 -0.79390001
6.1111999 150.3654 -0.79460001
-12.405 113.2738 -0.73379999
12.4038 113.2748 -0.73339999
-11.4654 118.4927 -0.70990002
11.463 118.4932 -0.71020001
-12.8227 126.3371 -0.71929997
12.8194 126.337 -0.71429998
-13.6917 132.9796 -0.72909999
13.6913 132.978 -0.72930002
-14.2761 135.8166 -0.70459998
14.2751 135.8163 -0.70529997
-14.9168 137.418 -0.73360002
14.9163 137.4175 -0.73479998
-8.9926004 149.3925 -0.73430002
8.9931002 149.3907 -0.73329997
-7.9390998 149.6843 -0.72939998
7.9401999 149.6843 -0.7295
-6.9549999 149.97549 -0.76560003
6.9566002 149.97701 -0.7665
-0.87470001 150.14951 -0.76169997
0.87099999 150.1452 -0.76029998
-11.6819 106.263 -0.64789999
11.6815 106.2628 -0.64770001
-12.4128 112.8548 -0.67379999
12.4117 112.857 -0.67330003
-4.7652998 150.6707 -0.64719999
4.7652998 150.6709 -0.6473
-3.5502999 150.94859 -0.69599998
3.549 150.948 -0.6954
-12.7976 104.5835 -0.61220002
12.7962 104.5836 -0.61180001
-12.3613 104.9102 -0.6189
12.3599 104.9105 -0.61849999
-12.686 110.4179 -0.59909999
12.6873 110.4197 -0.59960002
-12.3985 112.4308 -0.58279997
12.3976 112.4341 -0.58240002
-11.3679 119.0254 -0.57560003
11.3658 119.0259 -0.57560003
-11.7236 120.7026 -0.57969999
11.7211 120.702 -0.5783
-13.1837 131.14011 -0.58810002
13.1838 131.1414 -0.58810002
-13.5848 133.425 -0.57130003
13.5838 133.4238 -0.57190001
-0.0013 149.6996 -0.61589998
-1.3269 150.3201 -0.59979999
1.3216 150.3152 -0.59780002
-11.827 105.1785 -0.54170001
11.8261 105.1787 -0.5413
-12.2582 108.0092 -0.5334
12.26 108.0098 -0.53500003
-12.5149 108.9904 -0.50239998
12.5175 108.9928 -0.50410002
-12.8331 127.8764 -0.55940002
12.8322 127.8764 -0.55839998
-13.0265 129.50301 -0.55400002
13.0263 129.5025 -0.55440003
-14.5098 144.1326 -0.53600001
14.5087 144.13229 -0.5363
-0.43509999 149.73911 -0.55559999
0.43189999 149.7368 -0.55559999
-5.4481001 150.19299 -0.54350001
5.4487 150.1936 -0.54409999
-2.9489 150.8175 -0.5575
2.9460001 150.8159 -0.55620003
-12.3591 111.9863 -0.44870001
12.3584 111.9899 -0.44859999
-12.1901 122.3883 -0.48840001
12.1898 122.3872 -0.49000001
-12.3047 123.3175 -0.44909999
12.3047 123.3171 -0.4501
-12.4568 124.3003 -0.43040001
12.4561 124.3002 -0.43059999
-14.8621 142.3085 -0.43079999
14.8614 142.30811 -0.4312
-11.8446 147.4715 -0.44
11.8436 147.4718 -0.44029999
-6.2410002 149.7188 -0.48159999
6.2424998 149.72031 -0.4826
-0.87660003 149.8374 -0.421
0.87199998 149.8336 -0.421
-1.8151 150.5089 -0.4779
1.8091 150.5043 -0.47569999
-4.1574998 150.5739 -0.4601
4.1570001 150.5739 -0.46000001
-2.3631001 150.67281 -0.4743
2.3583 150.6696 -0.47240001
-11.6702 106.9405 -0.40400001
11.671 106.9402 -0.4048
-11.2615 119.5583 -0.3942
11.2595 119.5586 -0.3942
-13.1196 131.4539 -0.4023
13.1208 131.45461 -0.40169999
-13.4844 133.8904 -0.4152
13.4835 133.8898 -0.4161
-14.2685 136.3183 -0.38080001
14.2676 136.31821 -0.38159999
-15.0026 139.2532 -0.39210001
15.0021 139.25301 -0.39309999
-15.0339 140.6796 -0.4181
15.0333 140.6794 -0.41890001
-7.1700001 149.3129 -0.39820001
7.1718001 149.31419 -0.39919999
-11.1987 105.3106 -0.30700001
11.1981 105.3105 -0.30680001
-12.4223 109.8258 -0.2958
12.4243 109.8284 -0.2969
-12.2866 111.5147 -0.28169999
12.2861 111.518 -0.28200001
-11.8189 121.7871 -0.3125
11.8164 121.7856 -0.31279999
-12.5146 125.5037 -0.3012
12.512 125.5031 -0.2983
-12.7423 128.2059 -0.315
12.7419 128.2054 -0.315
-12.8643 129.85851 -0.3425
12.8638 129.85831 -0.3427
-14.7333 137.98019 -0.28299999
14.7328 137.9798 -0.28420001
-10.5239 148.09979 -0.32550001
10.5238 148.0986 -0.3247
-9.3394003 148.59019 -0.2949
9.3402004 148.5883 -0.29390001
-8.2187996 148.96919 -0.3274
8.2201996 148.9686 -0.3274
-0.0011 149.3952 -0.32319999
-4.8181 150.0864 -0.31779999
4.8182998 150.0867 -0.31799999
-3.5495999 150.47369 -0.30329999
3.5481 150.4735 -0.303
-12.5223 126.8072 -0.27219999
12.5184 126.8082 -0.26660001
-13.0528 131.7948 -0.212
13.0547 131.7946 -0.21089999
-13.4249 134.368 -0.25029999
13.424 134.36771 -0.25119999
-13.6232 145.06731 -0.2307
13.6218 145.0683 -0.2316
-0.44710001 149.4267 -0.2613
0.4443 149.425 -0.26159999
-5.5626998 149.5526 -0.2331
5.5636001 149.5535 -0.234
-1.3329999 149.9769 -0.2586
1.3268 149.9727 -0.25819999
-11.1212 120.0749 -0.16599999
11.1191 120.0748 -0.16580001
11.447 121.169 -0.17120001
-11.4498 121.1702 -0.1723
-12.7048 130.203 -0.1451
12.7043 130.20329 -0.1453
-2.9505999 150.368 -0.18709999
2.9475 150.3671 -0.1865
-11.633 107.4154 -0.092399999
11.635 107.4153 -0.0942
-12.0358 108.3613 -0.1293
12.0388 108.3631 -0.13160001
-12.1729 111.0094 -0.092299998
12.1729 111.0121 -0.092799999
-11.9181 122.7501 -0.1339
11.9177 122.7492 -0.13519999
-12.0631 123.6601 -0.1197
12.0628 123.66 -0.1205
-12.6476 128.54089 -0.103
12.6475 128.54021 -0.1036
-6.4356999 149.06261 -0.1105
6.4372001 149.064 -0.1117
-0.90079999 149.50121 -0.12710001
0.89670002 149.49831 -0.1275
-4.2055001 150.01311 -0.1267
4.2051001 150.01311 -0.1267
-1.824 150.1263 -0.1362
1.8171 150.1228 -0.1355
-2.3692999 150.25439 -0.1219
2.3638999 150.2522 -0.1212
-10.7742 104.5043 -0.029200001
10.7737 104.5043 -0.029100001
-12.086 109.2106 -0.0011
12.0891 109.2139 -0.0027999999
-11.1246 116.0507 -0.018999999
11.1231 116.0506 -0.02
-11.0232 116.5137 -0.023700001
11.022 116.5138 -0.024599999
-10.9127 116.9692 -0.0082999999
10.9113 116.9695 -0.0092000002
-12.966 132.1783 -0.012
12.967 132.17751 -0.0115
-13.4085 134.8532 -0.061299998
13.4075 134.8532 -0.062100001
-14.2097 136.8437 -0.0307
14.2088 136.8434 -0.031599998
-14.1427 143.149 -0.0066
14.142 143.14999 -0.0074999998
-0.00069999998 149.0694 -0.048599999
-4.9176998 149.4601 -0.0082999999
4.9180002 149.46049 -0.0088
-10.7832 105.9251 0.045699999
10.7829 105.9246 0.045699999
-11.2911 115.071 0.0502
11.287 115.0704 0.047699999
-11.2147 115.5667 0.0089999996
11.2118 115.5663 0.0070000002
-10.7951 117.4309 0.024499999
10.7936 117.4313 0.023700001
-12.1636 124.7265 0.0129
12.1623 124.7265 0.0136
-12.5718 130.5239 0.0381
12.5714 130.5249 0.037799999
-14.4733 141.4357 0.045499999
14.4729 141.4362 0.0447
-12.5106 146.071 0.0187
12.509 146.0726 0.0174
-7.4322 148.6165 0.0147
7.4338002 148.61681 0.0141
-0.46489999 149.0898 0.0115
0.463 149.08881 0.0113
-1.3695 149.6004 0.0283
1.3638 149.5972 0.028200001
-3.5959001 149.9413 0.0197
3.5946 149.9411 0.0199
-10.9258 106.486 0.13410001
10.9265 106.4855 0.13339999
-12.0085 110.4675 0.1074
12.0091 110.4697 0.1067
-11.3966 114.0881 0.1371
11.3942 114.0879 0.1372
-11.3511 114.5729 0.094499998
11.3476 114.5723 0.093099996
-10.6794 117.9108 0.079000004
10.6779 117.9111 0.078500003
-10.9219 120.5587 0.1092
10.9197 120.5582 0.1097
-11.4661 122.2017 0.1127
11.4631 122.1999 0.1115
-12.3189 127.2322 0.079999998
12.3159 127.2332 0.083999999
-12.5221 128.9017 0.1009
12.522 128.90109 0.1004
-14.5818 139.92191 0.0722
14.5813 139.9221 0.071199998
-8.5383997 148.1994 0.125
8.5396004 148.19791 0.1256
-5.7336001 148.9079 0.1354
5.7343998 148.90891 0.1345
-0.93620002 149.13541 0.1398
0.93339998 149.13361 0.1397
-2.9971001 149.86819 0.1191
2.9942999 149.8676 0.1193
-10.4804 105.2289 0.1587
10.4797 105.2284 0.15899999
-11.4502 113.1982 0.20999999
-11.4294 113.6326 0.17299999
11.4271 113.633 0.1737
-10.5744 118.4206 0.1596
10.573 118.4209 0.1591
-11.666 123.0964 0.15880001
11.6654 123.096 0.15809999
-12.1733 126.0128 0.1718
12.1685 126.0136 0.17730001
-12.8608 132.59731 0.18430001
12.8603 132.59621 0.1839
-13.4375 135.34151 0.16689999
13.4365 135.3419 0.1663
-14.4637 138.5898 0.14560001
14.4632 138.5896 0.1444
-10.9768 147.0632 0.15260001
10.9763 147.0631 0.1525
-9.7020998 147.7166 0.17129999
9.7025995 147.7151 0.17209999
-4.2930002 149.4093 0.1785
4.2927999 149.4093 0.17839999
-1.8693 149.7039 0.14650001
1.8631001 149.7011 0.14659999
-2.4166999 149.79111 0.1691
2.4117999 149.7894 0.1693
-11.4721 107.772 0.2132
11.4751 107.7728 0.211
-11.6704 108.5912 0.2669
11.6738 108.5938 0.26480001
-11.4596 112.7768 0.2559
11.4574 112.7801 0.25659999
11.4477 113.1997 0.21080001
-10.4705 118.9443 0.26890001
10.4691 118.9446 0.2683
-11.0685 121.6109 0.25009999
11.0645 121.6091 0.2502
-11.8014 124.0393 0.22840001
11.8008 124.0395 0.2277
-12.46 130.83749 0.21879999
12.4598 130.839 0.2183
-0.4824 148.71581 0.27680001
-0.00030000001 148.70551 0.2185
0.4815 148.7153 0.27680001
-10.9341 106.9274 0.32620001
10.936 106.9271 0.3249
-11.7839 109.8862 0.30509999
11.7852 109.8884 0.30430001
-11.4542 112.3521 0.3195
11.4524 112.3569 0.31999999
-12.3719 129.2747 0.29530001
12.3717 129.2744 0.2949
-14.0903 137.4023 0.3267
14.0894 137.40179 0.3256
-13.3138 143.98669 0.34419999
13.3131 143.9895 0.34220001
-6.6707001 148.3835 0.30559999
6.6718998 148.3842 0.3048
-5.0609002 148.82339 0.34119999
5.0612998 148.8239 0.3407
-1.4216 149.1915 0.285
1.4175 149.1893 0.285
-3.6759 149.3678 0.31299999
3.675 149.36771 0.31310001
-10.0818 104.4693 0.36739999
10.0809 104.4687 0.36770001
-11.4303 111.9077 0.40990001
11.4288 111.9128 0.40990001
-10.3582 119.4659 0.4091
10.3567 119.4661 0.4086
-10.6526 121.0056 0.41679999
10.6502 121.0046 0.41749999
-11.2091 122.5776 0.41249999
11.2064 122.5763 0.41139999
-12.1803 127.6248 0.3567
12.1788 127.6253 0.3585
-12.3639 131.1604 0.4082
12.364 131.1615 0.40790001
-12.7385 133.0444 0.3637
12.7374 133.04359 0.36250001
-13.4702 135.8409 0.41960001
13.4691 135.8416 0.4192
-0.97170001 148.7348 0.3998
0.97000003 148.7338 0.3998
-1.9345 149.2473 0.39809999
1.9298 149.2451 0.39820001
-3.0723 149.3304 0.39649999
3.0703001 149.33 0.39660001
-11.4993 109.2849 0.4892
11.5012 109.2872 0.4883
-11.4136 123.4508 0.44440001
11.413 123.4509 0.4436
-11.8363 125.2111 0.4711
11.8334 125.2116 0.4736
-12.2031 129.6461 0.47850001
12.2028 129.646 0.47819999
14.0938 140.6407 0.48989999
-13.8304 142.2049 0.45829999
13.8302 142.2066 0.4569
-7.7241001 147.8828 0.4745
7.7252998 147.8817 0.47479999
-2.4883001 149.2919 0.43000001
2.4847 149.2906 0.43020001
-10.8341 107.2648 0.52469999
10.8368 107.2652 0.523
-11.1836 108.0082 0.5079
11.187 108.0096 0.50590003
-11.3799 111.4365 0.51889998
11.3787 111.441 0.51849997
-12.6315 133.5114 0.52960002
12.6304 133.5112 0.528
-14.1204 139.2412 0.54470003
14.1198 139.2415 0.54360002
-14.0942 140.64 0.491
-5.9345999 148.2426 0.54220003
5.9351001 148.2433 0.54159999
-0.4962 148.29939 0.5503
-9.9999997e-05 148.29829 0.49540001
0.49590001 148.2991 0.5503
1.4724 148.7495 0.5359
-4.4106998 148.78529 0.5029
-1.4748 148.75079 0.5359
4.4106998 148.7854 0.50279999
-9.9439001 105.6139 0.60350001
9.9435997 105.6134 0.60360003
-10.0981 106.1017 0.62629998
10.0987 106.1013 0.62589997
-10.2172 119.9672 0.57840002
10.2156 119.9672 0.57800001
-11.4974 124.4801 0.62260002
11.4964 124.4806 0.62279999
-11.8623 126.5268 0.58819997
11.8562 126.5288 0.5952
-12.0742 127.9978 0.57700002
12.0736 127.9979 0.57740003
-12.2674 131.5085 0.60939997
12.2676 131.5087 0.6092
-8.8591003 147.383 0.59490001
8.8599005 147.3811 0.59600002
-3.7762001 148.7699 0.61669999
3.7758 148.77 0.61669999
-9.6675997 105.0091 0.6832
9.6666002 105.0084 0.68349999
-11.1545 108.6832 0.64829999
11.1568 108.6849 0.64709997
-11.295 110.9314 0.63849998
11.2944 110.9348 0.63810003
-10.9934 122.9347 0.65310001
10.9913 122.9342 0.6523
-12.0332 130.00439 0.65179998
12.0328 130.00459 0.65149999
-12.572 133.9902 0.68519998
12.571 133.9903 0.6839
-13.4649 136.3597 0.68239999
13.4638 136.3598 0.68180001
-13.9009 138.0034 0.67229998
13.9001 138.0031 0.67119998
-12.4006 144.6256 0.69489998
12.4002 144.6293 0.69220001
-11.3238 145.9691 0.63800001
11.3232 145.97031 0.63700002
-10.0517 146.7849 0.64670002
10.0519 146.784 0.64709997
-0.99970001 148.29449 0.66649997
0.99910003 148.29401 0.66649997
-3.1605999 148.7668 0.68059999
-2.5671999 148.76559 0.6925
-2.003 148.7618 0.64630002
2.0002999 148.7605 0.64639997
2.5652001 148.76489 0.6925
3.1596 148.7668 0.68059999
-10.1465 106.4913 0.71160001
10.148 106.4911 0.71079999
-10.6341 107.502 0.72170001
10.6371 107.5028 0.72000003
-11.1671 110.3921 0.75760001
11.167 110.3942 0.75730002
-10.3025 121.4114 0.74250001
10.2993 121.4099 0.74260002
-10.5427 122.0405 0.72899997
10.5373 122.0383 0.72799999
-11.1466 123.8388 0.7464
11.1459 123.8392 0.74559999
-11.9719 128.36839 0.76139998
11.9716 128.3683 0.76130003
-6.9222002 147.66901 0.75309998
6.9229999 147.6685 0.75319999
-5.2238998 148.166 0.72180003
5.2241001 148.1664 0.72149998
-10.1052 106.8015 0.8197
10.1074 106.8016 0.81870002
-10.7641 108.122 0.78689998
10.7665 108.1229 0.78549999
-10.1613 115.5121 0.81950003
10.1589 115.5118 0.81809998
-10.0957 115.9937 0.80190003
10.0944 115.9935 0.80110002
-10.0151 116.4522 0.80870003
10.0141 116.4522 0.80800003
-9.9207001 116.904 0.83560002
9.9196997 116.904 0.8348
-10.0274 120.4301 0.77460003
10.0258 120.4298 0.77450001
-11.8795 130.338 0.81650001
11.8792 130.33881 0.8161
-12.1541 131.89771 0.82529998
12.1539 131.8974 0.82489997
-13.1003 142.93269 0.82440001
13.1005 142.9364 0.82169998
-9.9999997e-05 147.8429 0.79930001
-1.5178 148.2758 0.79549998
1.5168 148.27521 0.7956
-10.3423 107.6422 0.90930003
10.3446 107.6427 0.90810001
-10.9878 109.8179 0.86489999
10.9879 109.8191 0.86489999
-10.2487 114.5073 0.8962
10.245 114.5067 0.89579999
-10.2122 115.0144 0.85360003
10.2087 115.0139 0.85210001
-9.8140001 117.3654 0.87819999
9.8128996 117.3655 0.87760001
-10.447 122.4616 0.88819999
10.4427 122.4603 0.88709998
-10.7645 123.2929 0.90060002
10.7632 123.2929 0.89990002
-11.497 125.7481 0.90939999
-12.5621 134.47591 0.8466
12.5612 134.4762 0.84560001
-13.7159 139.92909 0.90700001
13.7154 139.9296 0.9059
-13.5329 141.35699 0.87290001
13.5327 141.3586 0.87159997
-0.50260001 147.83521 0.84759998
0.50239998 147.83501 0.84759998
-4.5384002 148.1395 0.852
4.5386 148.1395 0.85189998
-2.0602 148.2473 0.90670002
2.0590999 148.2468 0.90670002
-9.9944 107.0408 0.93959999
9.9968004 107.0412 0.93849999
-10.7617 109.2287 0.95469999
10.7619 109.2293 0.95469999
-10.3011 113.5372 0.97490001
10.297 113.5371 0.9763
-10.2765 114.0089 0.93940002
10.2728 114.0084 0.94029999
-9.7033005 117.8459 0.93339998
9.7020998 117.846 0.93290001
11.4913 125.7498 0.9149
-11.643 127.002 0.91229999
11.6384 127.0038 0.91759998
-11.8443 128.75391 0.9307
11.8442 128.75369 0.9303
-13.4131 136.9082 0.94779998
13.4119 136.90781 0.94700003
-8.0074997 147.1145 0.93879998
8.0081997 147.1125 0.94
-6.1395001 147.5401 0.96759999
6.1398001 147.53999 0.96749997
-1.013 147.8096 0.95359999
1.0127 147.8093 0.95359999
-3.8780999 148.1487 0.94019997
3.8783 148.1488 0.94019997
-2.6366999 148.21291 0.96929997
2.6361001 148.2128 0.96920002
-9.0118999 105.2674 1.0332
9.0116997 105.2672 1.0332
-9.1739998 105.7021 1.0228
9.1744003 105.702 1.0225
-10.4932 108.6441 1.0211
10.4938 108.6443 1.0208
-10.3375 112.6497 1.04
10.3336 112.6521 1.0412
-10.3217 113.0861 1.007
10.3173 113.087 1.0085
-9.5971003 118.3546 0.99790001
9.5959997 118.3548 0.9971
-9.79 120.8463 0.99010003
9.7883997 120.8457 0.99019998
-11.1734 124.9781 1.0352
11.1712 124.979 1.0369
-11.7407 130.6628 0.9849
11.7406 130.664 0.98430002
-12.0289 132.3213 1.0402
12.0283 132.3208 1.0394
-12.6037 134.96359 1.0293
12.6028 134.9642 1.0287
-13.6459 138.6413 0.99779999
13.6452 138.6414 0.99680001
-9.1423998 146.5284 1.0496
-3.2437999 148.17821 0.98119998
3.2439001 148.1785 0.98100001
-8.7556 104.7274 1.0944
8.7547998 104.7268 1.0946
-9.2551003 106.0534 1.0528001
9.2561998 106.0533 1.0523
-9.2686996 106.3434 1.1129
9.2701998 106.3433 1.1121
-9.8339005 107.2177 1.0604
9.8358002 107.218 1.0595
9.9147997 107.6463 1.1194
-10.2035 108.1034 1.0731
10.2045 108.1034 1.0726
-10.3434 112.2112 1.0793999
10.3401 112.2149 1.0802
-9.4884996 118.8738 1.0761
9.4872999 118.874 1.0750999
-9.8640003 121.7148 1.0767
9.8606005 121.7131 1.0761
-10.2871 122.815 1.0759
10.2841 122.8145 1.075
-10.8507 124.286 1.0884
10.85 124.2866 1.0882
-11.6963 129.1438 1.0885
11.6961 129.1438 1.0881
-11.4287 144.86971 1.1192
11.4287 144.8726 1.1171
-10.3194 145.82941 1.1097
10.3195 145.8295 1.1094
9.1429005 146.5269 1.0504
-0.00019999999 147.3445 1.1144
-1.5391999 147.76379 1.0785
1.5386 147.7635 1.0785
-9.6536999 107.322 1.1751
9.6549997 107.3221 1.1745
-9.9136 107.6462 1.12
-10.3046 111.2715 1.1895
10.3019 111.2747 1.1895
-10.3342 111.7539 1.1309
10.3312 111.7577 1.1312
-9.3703003 119.3856 1.1725
9.3691998 119.3857 1.1716
-10.5176 123.6805 1.1669
10.5168 123.6809 1.1664
-11.4901 127.4449 1.1634001
11.4878 127.4458 1.166
-11.6155 130.9949 1.1695
11.6154 130.9957 1.1688
-12.2869 143.51221 1.1805
12.2875 143.51711 1.177
-0.50260001 147.32919 1.1546
0.50220001 147.3291 1.1545
-5.3827 147.47791 1.1247
5.3828001 147.4778 1.1247
-9.2371998 106.5929 1.1934
9.2388 106.5928 1.1926
-10.2492 110.7576 1.2501
10.2474 110.7599 1.25
-9.5060997 121.2076 1.2172
9.5045004 121.2068 1.2171
-11.5324 129.52811 1.2387
11.5321 129.52811 1.2383
-11.897 132.77251 1.2387
11.896 132.7722 1.2373
-12.6613 135.45889 1.221
12.6602 135.4597 1.2206
