# .PCD v0.7 - Point Cloud Data file format
VERSION 0.7
FIELDS x y z
SIZE 4 4 4
TYPE F F F
COUNT 1 1 1
WIDTH 1417
HEIGHT 1
VIEWPOINT 0 0 0 1 0 0 0
POINTS 1417
DATA ascii
0.33058146 2.9454534 0.037083864
0.33818004 2.9445522 0.031921148
0.34745845 2.9438243 0.021176815
0.35596415 2.9430006 0.013228416
0.36619189 2.9423368 -0.00029921532
0.3773441 2.9417443 -0.016611814
0.38858363 2.9411361 -0.032918215
0.4007751 2.9405944 -0.052007675
0.41220501 2.9399519 -0.068300247
-0.41829875 3.0906644 -0.21320415
-0.41040373 3.0867083 -0.18128252
-0.40244031 3.0822794 -0.14365411
-0.39500353 3.0786366 -0.11461616
-0.38812551 3.0760098 -0.097022295
-0.38134027 3.0734029 -0.07943511
-0.37481719 3.0713007 -0.067568779
-0.36851168 3.0696983 -0.061419964
-0.36216512 3.0678587 -0.05241704
-0.3558647 3.0660269 -0.043417454
-0.34966424 3.0644436 -0.03727603
-0.34359145 3.0633411 -0.036846161
-0.33747524 3.0620031 -0.033561707
-0.33134246 3.0604322 -0.027425289
-0.32521486 3.0586319 -0.018437624
-0.3191663 3.0573065 -0.015158415
-0.31311995 3.0557511 -0.0090277195
-0.307111 3.0546601 -0.0086023808
-0.30110666 3.0533426 -0.0053257942
-0.29510313 3.0522552 -0.0049004555
-0.28912187 3.0509391 -0.0016260147
-0.28315187 3.0496275 0.0016479492
-0.27712554 3.0487666 -0.00077629089
-0.27113035 3.047678 -0.0003516674
-0.26528245 3.0459282 0.0086157322
-0.25942406 3.0444098 0.014733076
-0.25359562 3.0428939 0.020848274
-0.24765146 3.0418146 0.021269083
-0.24170288 3.0407374 0.021690607
-0.23584482 3.0394464 0.024956703
-0.22990507 3.0383706 0.025377512
-0.22406955 3.0370836 0.028641939
-0.21802402 3.0362163 0.026218891
-0.21184215 3.0355542 0.020954609
-0.20588592 3.0344753 0.02137661
-0.20019785 3.032985 0.027481556
-0.19454274 3.0315034 0.033584595
-0.18876536 3.0302269 0.036844969
-0.18268672 3.0293534 0.034424305
-0.17692611 3.02808 0.037683487
-0.17100631 3.0270081 0.038102865
-0.16508365 3.0259354 0.038522482
-0.15916373 3.0248632 0.03894186
-0.15324382 3.0237913 0.039361238
-0.14732116 3.0227187 0.039780855
-0.14097701 3.0220273 0.034527779
-0.13526069 3.0207646 0.0377841
-0.12933239 3.019691 0.038204193
-0.12410849 3.0180545 0.047127247
-0.11844251 3.0168011 0.050379992
-0.11254503 3.0157332 0.050797939
-0.10690469 3.0144815 0.054048538
-0.10127836 3.0132325 0.057298422
-0.095668852 3.0119863 0.060546637
-0.089514226 3.011102 0.058131695
-0.083054736 3.0103927 0.052886963
-0.076860964 3.009501 0.050474644
-0.070955098 3.0084314 0.050893068
-0.06473887 3.0075359 0.048482656
-0.058508679 3.0066378 0.04607296
-0.052915901 3.0053949 0.049320221
-0.047339469 3.0041578 0.05256629
-0.041777432 3.0029202 0.055811644
-0.035530448 3.0020192 0.053402901
-0.029269546 3.0011153 0.050995588
-0.022994429 3.0002093 0.04858923
-0.01670602 2.9993005 0.046183586
-0.011159599 2.9980688 0.049427986
-0.0052424371 2.9969974 0.049847126
0.00027698278 2.9957676 0.053089142
0.0057841539 2.9945431 0.056330442
0.010862142 2.9931657 0.062392712
0.016745925 2.9921002 0.062809467
0.023056895 2.9911876 0.060405493
0.028947085 2.9901237 0.060822964
0.034396797 2.9889066 0.064060211
0.03892982 2.9873981 0.072934628
0.045247167 2.9864872 0.070531368
0.05157581 2.9855711 0.068128824
0.058393478 2.984797 0.062909603
0.063801497 2.9835901 0.06614399
0.069193274 2.9823835 0.069377184
0.075062841 2.9813235 0.069793224
0.080932885 2.9802604 0.070209026
0.087312073 2.9793382 0.067810059
0.092152536 2.9780042 0.0738554
0.096962065 2.9766729 0.079898119
0.10333833 2.9757512 0.077498913
0.10973075 2.9748237 0.075100899
0.11668488 2.9740248 0.069891453
0.12255836 2.972964 0.07030797
0.128993 2.9720287 0.067912579
0.13372746 2.9707141 0.073950529
0.1390098 2.9695301 0.077175856
0.14486265 2.968473 0.077590704
0.15190414 2.967658 0.072387457
0.15777174 2.9665985 0.072803497
0.16485742 2.9657757 0.067603111
0.17073581 2.9647141 0.068019867
0.1772401 2.9637663 0.065629721
0.18312731 2.962703 0.066046953
0.18965131 2.9617517 0.063658237
0.19619253 2.9608002 0.061270714
0.20209053 2.9597349 0.0616889
0.2086508 2.9587772 0.05930233
0.21522531 2.9578195 0.056917429
0.22181407 2.9568565 0.054533005
0.22841612 2.955894 0.052150011
0.23364642 2.9547195 0.055371761
0.23956063 2.9536483 0.055790901
0.24547532 2.9525802 0.056210041
0.25139007 2.9515119 0.056629419
0.25657722 2.9503453 0.059848309
0.26321068 2.9493771 0.057467222
0.27059963 2.9484992 0.052288532
0.27876523 2.9477112 0.044313908
0.28546539 2.9467309 0.041937828
0.29141644 2.9456561 0.042359591
0.29813722 2.9446719 0.039984941
0.30565086 2.9437716 0.034815073
0.312408 2.942781 0.032442808
0.31838652 2.9417012 0.032866478
0.32436255 2.940619 0.033289909
0.33114716 2.9396234 0.03091979
0.3395758 2.9387875 0.022963762
0.34805015 2.9379463 0.015011311
0.35656521 2.9370947 0.0070612431
0.36596492 2.9363134 -0.0036771297
0.37542543 2.9355206 -0.014411211
0.38664833 2.9348695 -0.03072238
0.39796355 2.9342015 -0.047027111
0.4111059 2.9336629 -0.0689044
-0.43009144 3.0825195 -0.16895771
-0.42609739 3.0855625 -0.2171545
-0.41930157 3.0838857 -0.21096992
-0.41139734 3.0800116 -0.17904115
-0.40354431 3.0759282 -0.14426374
-0.3962056 3.0726023 -0.11807823
-0.38941577 3.0702622 -0.10333848
-0.382606 3.0676968 -0.085745573
-0.37606385 3.065623 -0.073875427
-0.36974114 3.0640321 -0.067724228
-0.36337501 3.0622115 -0.058717966
-0.35718513 3.0608664 -0.055428267
-0.3508364 3.0588274 -0.043571472
-0.34470004 3.0574946 -0.04028511
-0.33853343 3.055932 -0.03414464
-0.33243096 3.0546024 -0.030860901
-0.32631683 3.0530519 -0.024724245
-0.32027158 3.0519545 -0.024296284
-0.31420121 3.0504091 -0.018162727
-0.30816269 3.0488725 -0.012031555
-0.30215025 3.0473378 -0.0059022903
-0.29615015 3.0462482 -0.0054774284
-0.29012525 3.0453787 -0.0079023838
-0.28414255 3.0440707 -0.0046269894
-0.27817106 3.0427678 -0.0013523102
-0.27225673 3.0412509 0.0047700405
-0.2663236 3.0399549 0.0080423355
-0.26040515 3.0386615 0.011313438
-0.25463188 3.0369484 0.020277262
-0.24875763 3.0356631 0.023545265
-0.24273916 3.0347919 0.021119595
-0.23679158 3.0337148 0.02154088
-0.23084398 3.0326376 0.021962166
-0.22499868 3.0313547 0.025228024
-0.21905884 3.0302789 0.025648832
-0.21311665 3.0292029 0.02606988
-0.20730183 3.0279255 0.029333115
-0.20136799 3.0268509 0.029753447
-0.19571617 3.0253842 0.035857677
-0.18994567 3.0241177 0.039118052
-0.18434751 3.0226579 0.045217991
-0.17812046 3.0219731 0.039955616
-0.17238078 3.0207124 0.043213844
-0.16647489 3.0196428 0.043632269
-0.16056892 3.0185733 0.044050694
-0.15446891 3.0176899 0.041631222
-0.14855468 3.016619 0.042050123
-0.1422213 3.0159152 0.036795378
-0.13629305 3.0148416 0.037215471
-0.13036476 3.013768 0.037635326
-0.12513696 3.0121536 0.046560526
-0.11971173 3.0107281 0.052648783
-0.11406994 3.009485 0.055900335
-0.10818644 3.0084195 0.056317091
-0.10256711 3.0071802 0.059566736
-0.09669432 3.0061195 0.059983015
-0.09081918 3.0050557 0.060399294
-0.084368289 3.0043304 0.055152893
-0.078184322 3.003432 0.052739143
-0.0722868 3.0023642 0.053156853
-0.066701025 3.0011311 0.056404352
-0.060494184 3.0002313 0.05399251
-0.054596663 2.9991634 0.054410219
-0.048367918 2.9982569 0.051999807
-0.04280445 2.9970279 0.055245638
-0.036558926 2.9961183 0.052836418
-0.03030178 2.9952095 0.050428152
-0.024390191 2.994139 0.050847054
-0.018108159 2.993223 0.048440456
-0.012570113 2.9920013 0.051684618
-0.0066607893 2.990931 0.052103281
-0.0015410781 2.9895608 0.058169603
0.0043520331 2.9884965 0.058587313
0.0090174973 2.9869871 0.067473173
0.014885098 2.9859273 0.067888975
0.021177948 2.9850092 0.065483332
0.027487487 2.9840882 0.063078403
0.032928318 2.9828842 0.066315889
0.037908643 2.9815392 0.07237196
0.043767422 2.9804811 0.072787285
0.049625665 2.9794202 0.073202372
0.056424171 2.9786348 0.067981005
0.061817467 2.9774365 0.071214676
0.067196518 2.976244 0.074447632
0.072555929 2.9750547 0.077679396
0.079406977 2.974257 0.072461128
0.085775882 2.9733281 0.070060968
0.092161983 2.972393 0.067661524
0.096464783 2.970952 0.076521873
0.10338011 2.9701457 0.071308613
0.10924724 2.9690833 0.071724415
0.1162048 2.9682691 0.066513777
0.12042025 2.9668441 0.075367928
0.1268402 2.9659059 0.072971344
0.13213235 2.964726 0.076197863
0.13856599 2.9637852 0.073802233
0.143841 2.9626112 0.077027798
0.1514717 2.9618969 0.069013357
0.15614477 2.9606075 0.075048208
0.16382739 2.9598837 0.067037106
0.16970876 2.9588215 0.067453861
0.1768342 2.9579771 0.062255621
0.18335721 2.9570203 0.05986619
0.18989691 2.9560604 0.057477951
0.19580373 2.9549935 0.057896614
0.20170912 2.9539242 0.058315039
0.207616 2.9528573 0.058733702
0.21418902 2.9518914 0.056347847
0.22145191 2.9510219 0.051159143
0.2273784 2.9499516 0.051579237
0.23330095 2.9488819 0.051999092
0.23922446 2.9478121 0.052418947
0.24514702 2.9467425 0.052838802
0.25106767 2.9456732 0.053258419
0.25698826 2.9446037 0.053678274
0.26363692 2.9436243 0.051297665
0.27103713 2.9427299 0.046118498
0.27772215 2.9417439 0.043740511
0.28442088 2.9407551 0.041363716
0.29113427 2.9397638 0.038987637
0.29709122 2.9386878 0.039409876
0.3038272 2.9376924 0.037035704
0.31057307 2.9366951 0.034662008
0.31891778 2.9358542 0.026698589
0.32491103 2.9347718 0.027123451
0.3317109 2.9337649 0.024753571
0.34014937 2.932904 0.016796112
0.34863308 2.9320352 0.0088419914
0.35633329 2.9310896 0.0036845207
0.36573538 2.9302759 -0.0070562363
0.37519649 2.9294517 -0.017792702
0.38556769 2.9286869 -0.03131628
0.39687613 2.927974 -0.047625303
0.41000667 2.9273741 -0.069508791
-0.42723447 3.079021 -0.2177825
-0.41239196 3.0733323 -0.17679811
-0.4046483 3.0695767 -0.14487338
-0.39718616 3.0660849 -0.11582088
-0.39050221 3.0640171 -0.1039381
-0.38378161 3.061727 -0.089200258
-0.377406 3.0601437 -0.083043814
-0.37097406 3.0583346 -0.074031353
-0.36466563 3.0567605 -0.067879915
-0.35831672 3.0549693 -0.058872938
-0.35207504 3.0534074 -0.052726269
-0.34586135 3.0518534 -0.046581507
-0.33963364 3.0500813 -0.037583113
-0.33348769 3.0485394 -0.031443119
-0.3273682 3.0470026 -0.025305033
-0.32130352 3.0456886 -0.022022963
-0.31526417 3.0445919 -0.02159524
-0.30922106 3.0432818 -0.018314838
-0.30318972 3.0419736 -0.015035629
-0.29717413 3.0406685 -0.011757135
-0.29115388 3.0395782 -0.011330843
-0.28523657 3.0376494 0.00049805641
-0.27927986 3.0363548 0.0037722588
-0.27333787 3.035063 0.0070455074
-0.26741257 3.0337741 0.010317564
-0.26150197 3.0324881 0.013588428
-0.25560367 3.0312071 0.016858816
-0.24972057 3.0299258 0.020127773
-0.24369426 3.0290473 0.017702341
-0.2378249 3.0277686 0.020970106
-0.23187731 3.0266914 0.02139163
-0.22603348 3.0254176 0.024657965
-0.22020288 3.0241458 0.027923107
-0.21438625 3.0228796 0.031187773
-0.20858407 3.0216131 0.034451008
-0.2023986 3.0209217 0.029184341
-0.19646522 3.0198441 0.029604435
-0.19067922 3.0185835 0.032866955
-0.18521765 3.016953 0.041810989
-0.17931227 3.0158806 0.042228937
-0.17340925 3.0148115 0.042647123
-0.16768202 3.0135615 0.04590559
-0.1617845 3.0124934 0.046323299
-0.15588707 3.0114255 0.046741247
-0.14998728 3.010354 0.047158957
-0.14387977 3.0094638 0.044739246
-0.1379739 3.0083942 0.045157671
-0.13184458 3.0074971 0.04273963
-0.12639731 3.0060821 0.048830032
-0.12073727 3.0048442 0.052083731
-0.11509404 3.0036092 0.055335999
-0.10921054 3.0025437 0.055752754
-0.10306717 3.0016441 0.053335428
-0.097446397 3.0004132 0.056586266
-0.091842279 2.9991856 0.059835672
-0.085682154 2.9982829 0.057419777
-0.079504758 2.9973798 0.055005074
-0.07361567 2.9963133 0.055422306
-0.068344623 2.9949303 0.061500311
-0.062153295 2.9940248 0.0590868
-0.0559479 2.9931169 0.056674004
-0.04972899 2.9922035 0.054262161
-0.043492794 2.9912899 0.051851511
-0.037589759 2.9902208 0.052269697
-0.031331211 2.9893031 0.049860954
-0.026143968 2.9879351 0.055933237
-0.019511312 2.9871626 0.050698519
-0.014357269 2.9858034 0.056768417
-0.0084626973 2.984736 0.057186127
-0.0029614568 2.9835298 0.060428619
0.0033250153 2.9826043 0.058021307
0.0084004998 2.9812593 0.064086199
0.014278889 2.9801974 0.064502716
0.020576149 2.97927 0.062096357
0.026890606 2.9783423 0.059691429
0.031026274 2.9767418 0.071394205
0.036440641 2.9755483 0.07463026
0.042744249 2.9746225 0.072224617
0.049063593 2.9736938 0.069820166
0.05539766 2.9727626 0.067416668
0.060317099 2.971446 0.073469877
0.065689266 2.9702601 0.076703072
0.07104376 2.9690776 0.079935074
0.077383667 2.9681451 0.077531815
0.083737373 2.9672103 0.075129509
0.090619862 2.9663954 0.06991291
0.094920188 2.9649751 0.078774691
0.10129401 2.9640396 0.076374054
0.10714445 2.96298 0.076788664
0.11353937 2.9620378 0.074389458
0.11884525 2.9608669 0.077617884
0.12469223 2.9598107 0.078032494
0.13054016 2.9587548 0.078446865
0.13638765 2.9576957 0.078861237
0.14223167 2.9566402 0.07927537
0.14926043 2.9557989 0.074069262
0.15511915 2.9547408 0.074484587
0.1621916 2.9538887 0.069280624
0.16806412 2.9528282 0.069696903
0.17517921 2.9519711 0.064496517
0.18232629 2.9511054 0.059298277
0.18822432 2.9500403 0.059716225
0.19347915 2.9488785 0.062941313
0.19937226 2.9478142 0.063359022
0.20658162 2.9469402 0.058165312
0.21248558 2.945874 0.058583736
0.21906307 2.9448986 0.056197643
0.22634014 2.9440122 0.051008701
0.2322627 2.9429426 0.051428556
0.23818627 2.9418726 0.051848412
0.24340132 2.9407153 0.055070162
0.25002936 2.9397337 0.052687883
0.25595 2.9386644 0.0531075
0.26186761 2.9375956 0.053527117
0.26778528 2.9365268 0.053946495
0.27519098 2.9356172 0.048766613
0.28187206 2.9346259 0.046387911
0.28857026 2.9336286 0.044010162
0.29527977 2.9326322 0.041633606
0.3020055 2.9316301 0.039257765
0.30952606 2.9306996 0.034086227
0.31786546 2.9298339 0.026120186
0.32545277 2.9288912 0.02095294
0.33145973 2.9278064 0.021378756
0.33909217 2.9268558 0.016215086
0.34675309 2.9259 0.011053324
0.35609737 2.9250679 0.00030636787
0.36466649 2.9241605 -0.0076436996
0.37412271 2.9233081 -0.018382788
0.38278702 2.9223835 -0.026325941
0.39321318 2.9215684 -0.039849281
0.40630862 2.9209116 -0.06174016
-0.43216842 3.0694618 -0.16732478
-0.42765117 3.0713191 -0.20409417
-0.42088977 3.0696776 -0.19790959
-0.41312587 3.0662091 -0.16882968
-0.40587524 3.0634518 -0.14834476
-0.39861745 3.0604892 -0.12500644
-0.39190602 3.0584452 -0.11311913
-0.38505661 3.0559678 -0.095516205
-0.37857276 3.0541723 -0.086497784
-0.37204933 3.0521653 -0.074623585
-0.36566064 3.0503869 -0.065612316
-0.35938269 3.0488358 -0.059461594
-0.35307795 3.0470755 -0.050455809
-0.34687114 3.0455346 -0.04431057
-0.34068984 3.0440037 -0.038166523
-0.33450335 3.0422621 -0.029169559
-0.32839328 3.0407412 -0.023030758
-0.3223539 3.0396447 -0.022603035
-0.31631699 3.0385513 -0.022175312
-0.31026995 3.0372462 -0.018894196
-0.30423838 3.0357397 -0.012761354
-0.29823011 3.0344446 -0.0094826221
-0.29221824 3.0333529 -0.009057045
-0.28628063 3.0316591 -7.724762e-05
-0.28035212 3.0301712 0.0060486794
-0.27445745 3.0286925 0.012172222
-0.2684986 3.0276103 0.012594223
-0.26259145 3.0263336 0.015865803
-0.25670102 3.0250597 0.019135952
-0.25068498 3.0241745 0.016709089
-0.24473198 3.0230935 0.017130613
-0.23869091 3.0222065 0.01470542
-0.23282011 3.0209363 0.017974377
-0.22696599 3.0196688 0.021241903
-0.22134081 3.0180318 0.030199528
-0.21553156 3.0167727 0.033464193
-0.2098608 3.0153315 0.039571524
-0.20356536 3.014807 0.031458378
-0.19777516 3.0135541 0.034721851
-0.19185582 3.0124793 0.035140991
-0.18624613 3.0110521 0.041244268
-0.18017986 3.0101576 0.038820982
-0.17477591 3.0085607 0.047762871
-0.16941619 3.0069742 0.05670166
-0.16354996 3.0059092 0.057117224
-0.15729755 3.0051882 0.051854134
-0.15121387 3.0042937 0.049432278
-0.14511676 3.0033937 0.047010899
-0.13921933 3.0023255 0.047428608
-0.13332181 3.0012577 0.047846556
-0.12765472 3.0000272 0.051101208
-0.12224093 2.9986353 0.057190895
-0.11636579 2.9975712 0.057606936
-0.11049075 2.9965074 0.058023214
-0.1046156 2.9954433 0.058439493
-0.099007741 2.9942207 0.061689615
-0.093141034 2.9931583 0.062105179
-0.086706236 2.9924073 0.05685544
-0.080822751 2.9913418 0.057272196
-0.075540423 2.9899738 0.063352346
-0.069982469 2.9887629 0.066599369
-0.063809767 2.9878492 0.064183474
-0.057296649 2.9870842 0.058939219
-0.050756007 2.986311 0.053696394
-0.044184089 2.9855349 0.048455954
-0.038618237 2.9843199 0.051703215
-0.032714635 2.9832537 0.052121639
-0.027532935 2.981904 0.058195114
-0.021278858 2.9809785 0.055784941
-0.015759975 2.979775 0.059029341
-0.010257751 2.9785743 0.06227231
-0.0047702789 2.9773762 0.065514088
0.0018967986 2.9765801 0.060280323
0.0077830255 2.975517 0.060697556
0.013666838 2.9744515 0.06111455
0.018705964 2.9731305 0.067177773
0.024573565 2.9720707 0.067593813
0.029568076 2.9707549 0.073653698
0.035864353 2.9698217 0.071246624
0.041723102 2.9687636 0.071661949
0.047118336 2.9675825 0.074897528
0.052499801 2.9664035 0.078131914
0.057867497 2.9652274 0.081365585
0.063698798 2.964174 0.081778765
0.068550467 2.962887 0.087828636
0.074866384 2.9619503 0.085422993
0.080688834 2.9608989 0.085835695
0.088054001 2.9601834 0.077798605
0.093898028 2.9591281 0.078212976
0.10026988 2.9581811 0.075811386
0.10558513 2.9570174 0.079041243
0.11088315 2.9558537 0.082269907
0.11726925 2.9549072 0.079869509
0.1242303 2.9540608 0.074656963
0.13008311 2.9530036 0.075071812
0.13536447 2.951843 0.078299046
0.14062527 2.950686 0.081524849
0.14764518 2.9498291 0.076316357
0.1546931 2.9489698 0.07111001
0.161769 2.9481027 0.065905333
0.16703561 2.9469447 0.069131613
0.1729081 2.945884 0.069547892
0.17940709 2.944917 0.0671556
0.18528548 2.9438555 0.067572355
0.19116089 2.9427943 0.067988873
0.19768634 2.9418225 0.065598488
0.2042295 2.9408476 0.063209534
0.21078297 2.9398677 0.060820818
0.21667853 2.9388058 0.061238766
0.22325459 2.9378221 0.058851719
0.22984585 2.9368386 0.056466103
0.23714802 2.9359331 0.051277876
0.24307153 2.9348633 0.051697731
0.24970403 2.9338722 0.049314737
0.25562951 2.932802 0.049734831
0.26082936 2.9316561 0.052956343
0.2667475 2.9305902 0.053376198
0.27340749 2.929594 0.050995111
0.28082988 2.9286642 0.045815229
0.28828421 2.9277313 0.040637732
0.29500011 2.9267251 0.038260698
0.3017337 2.9257157 0.035885096
0.30925623 2.9247677 0.030711889
0.31760052 2.923878 0.022744417
0.32360306 2.9227965 0.023170233
0.33040646 2.9217746 0.020799398
0.33722344 2.9207499 0.018429518
0.34569046 2.919838 0.010470867
0.35420564 2.9189172 0.0025150776
0.36359456 2.9180455 -0.0082314014
0.37388888 2.9172168 -0.021766663
0.38340738 2.9163215 -0.032504082
0.39384058 2.9154649 -0.046029806
0.40521333 2.9146452 -0.062342167
-0.42091411 3.0614073 -0.17562461
-0.41397649 3.0593543 -0.1637187
-0.40685719 3.056874 -0.14609265
-0.39982629 3.05441 -0.12847257
-0.39299536 3.0521777 -0.11372066
-0.3862386 3.0499618 -0.098973751
-0.37974101 3.0481868 -0.089952946
-0.3732053 3.0462093 -0.078075647
-0.3668049 3.044452 -0.069061279
-0.36044818 3.0427053 -0.060050011
-0.35420209 3.0411744 -0.05390048
-0.34798354 3.0396483 -0.047753096
-0.34174752 3.0379236 -0.038750172
-0.33552009 3.0360019 -0.026894569
-0.32944316 3.0347002 -0.023610592
-0.32338193 3.033401 -0.020327568
-0.31735039 3.032306 -0.01990056
-0.3113184 3.0312135 -0.019473314
-0.30528688 3.0301182 -0.019046068
-0.29926193 3.028826 -0.015766382
-0.29323632 3.0277319 -0.015339613
-0.28727716 3.0260572 -0.0063562393
-0.28133196 3.0245836 -0.00022792816
-0.27541721 3.0231154 0.0058984756
-0.26948947 3.0218406 0.0091719627
-0.26357299 3.0205708 0.012444496
-0.25767571 3.0193014 0.015715837
-0.25165325 3.0184064 0.013288498
-0.24592084 3.0167727 0.022255659
-0.23989695 3.0158803 0.019828558
-0.2341314 3.0144393 0.025944233
-0.22819804 3.0133619 0.026364326
-0.22237317 3.0121086 0.029630899
-0.21644767 3.0110354 0.030050516
-0.21064304 3.009783 0.03331542
-0.20459449 3.0088861 0.030890226
-0.19880606 3.0076394 0.034153938
-0.19303174 3.0063951 0.037416458
-0.18727186 3.0051506 0.040677786
-0.18152829 3.003912 0.043938398
-0.17579864 3.002676 0.047198057
-0.17061417 3.000946 0.058980227
-0.16457114 3.0000503 0.056554556
-0.15851191 2.9991486 0.054130077
-0.15243816 2.9982469 0.051706791
-0.14655742 2.9971819 0.052123547
-0.14067392 2.9961164 0.052540302
-0.13501427 2.9948931 0.055794716
-0.12936857 2.9936724 0.059048176
-0.12349905 2.9926093 0.059463978
-0.11763236 2.9915469 0.059879541
-0.11151385 2.9906373 0.057459593
-0.10589895 2.9894221 0.060710907
-0.1005661 2.9880621 0.066796303
-0.094439238 2.9871511 0.064376593
-0.088580877 2.9860902 0.064791679
-0.082719773 2.9850287 0.065207005
-0.076861411 2.9839678 0.065622091
-0.071002647 2.9829097 0.066037178
-0.064830929 2.9819906 0.063620806
-0.058642522 2.9810684 0.061205626
-0.052770227 2.9800048 0.061621666
-0.045549273 2.979491 0.050718546
-0.039646238 2.9784219 0.051136732
-0.033743113 2.9773529 0.051554918
-0.028561443 2.9760206 0.057629824
-0.022305399 2.9750888 0.055219412
-0.016788453 2.9738913 0.05846405
-0.011665404 2.9725695 0.064534426
-0.0061842799 2.9713814 0.067776442
0.00047147274 2.9705729 0.062541008
0.006755501 2.9696333 0.060132504
0.013466746 2.9688177 0.054900646
0.018103212 2.9673855 0.06379056
0.023550928 2.9662035 0.067030191
0.028545409 2.964905 0.073091507
0.034840256 2.9639635 0.070683718
0.040248692 2.9627883 0.073920965
0.046557754 2.9618473 0.071514368
0.051946551 2.9606757 0.074750185
0.057795972 2.9596164 0.075164557
0.063643962 2.9585602 0.075579166
0.068511784 2.9572847 0.08163166
0.073847651 2.9561229 0.084863186
0.079670072 2.9550712 0.085275888
0.086004615 2.9541254 0.082871675
0.092355877 2.9531765 0.080468178
0.097663224 2.9520199 0.083698034
0.10402921 2.9510684 0.08129549
0.10986248 2.9500148 0.081708908
0.11734942 2.9492545 0.073678493
0.12320521 2.9481969 0.07409358
0.1284934 2.9470463 0.077322245
0.1337674 2.9458957 0.080549717
0.13902172 2.9447486 0.083775997
0.14603138 2.9438791 0.078565359
0.1530675 2.9430046 0.073357105
0.16013461 2.9421217 0.068150282
0.16539535 2.9409764 0.071377039
0.17001975 2.9397447 0.077412128
0.17586771 2.9386885 0.077826738
0.18298534 2.9377995 0.072623968
0.18948779 2.9368231 0.070231199
0.19665644 2.9359248 0.065032005
0.20319763 2.9349444 0.062642336
0.20841858 2.9338033 0.065865993
0.21429989 2.9327412 0.066282749
0.2215412 2.9318297 0.0610888
0.22812125 2.9308393 0.058701515
0.23471639 2.9298491 0.05631566
0.24062619 2.928782 0.056734562
0.24795094 2.9278553 0.051546574
0.25458983 2.9268544 0.049163342
0.25979164 2.9257195 0.052386045
0.26424083 2.9245226 0.058408976
0.27088359 2.923521 0.05602622
0.27978924 2.9227049 0.045242786
0.28723958 2.9217556 0.04006362
0.29395404 2.9207411 0.037685871
0.29991147 2.919668 0.038108349
0.30820778 2.9187636 0.030135393
0.31575826 2.9177961 0.024963379
0.3233417 2.9168255 0.019793749
0.32934865 2.9157407 0.020219564
0.33616421 2.9147077 0.01784873
0.3438144 2.9137251 0.012684345
0.35313907 2.912833 0.0019304752
0.36252567 2.9119298 -0.0088188648
0.37197122 2.9110162 -0.019563913
0.3806282 2.9100497 -0.02751112
0.39104226 2.9091589 -0.041041613
0.40325406 2.9083395 -0.060151339
-0.42844361 3.0561447 -0.17669559
-0.42147219 3.054117 -0.16478467
-0.41469529 3.0523176 -0.15574217
-0.40796119 3.0505228 -0.14670229
-0.401039 3.0483143 -0.1319406
-0.39408475 3.0459101 -0.11432242
-0.38721976 3.0435224 -0.096710682
-0.38072562 3.0417738 -0.087687731
-0.37427905 3.0400312 -0.078668594
-0.36787426 3.0382991 -0.069651842
-0.36151415 3.036572 -0.060638666
-0.35526514 3.0350578 -0.054487705
-0.34904367 3.0335486 -0.048338413
-0.34275737 3.0316451 -0.036476135
-0.3366085 3.030149 -0.030332327
-0.33052617 3.0288548 -0.027047157
-0.32445663 3.0275629 -0.023762941
-0.31839883 3.0262733 -0.020479679
-0.31235772 3.0249865 -0.017197847
-0.3063333 3.0237029 -0.013916969
-0.30030939 3.0227988 -0.016344786
-0.29428375 3.0217047 -0.015918255
-0.28827897 3.0204246 -0.012638569
-0.28228745 3.0191495 -0.0093595982
-0.2764208 3.0173252 0.0024731159
-0.27052718 3.0158751 0.0085992813
-0.26455948 3.0147917 0.009021759
-0.25864986 3.0135288 0.012294292
-0.25275701 3.0122688 0.015566111
-0.24695222 3.010838 0.021685839
-0.24101298 3.0097594 0.022106409
-0.23516473 3.0085106 0.025374889
-0.2293278 3.0072608 0.028642654
-0.22340554 3.0061855 0.029062033
-0.21747729 3.0051117 0.029482126
-0.21167345 3.003871 0.032747746
-0.20575413 3.0027962 0.033166647
-0.20024395 3.0012288 0.04211998
-0.19434692 3.0001578 0.042537451
-0.18845224 2.9990904 0.04295516
-0.18271278 2.9978614 0.046216249
-0.17749274 2.9961536 0.058002949
-0.17198116 2.994776 0.064102411
-0.16577326 2.9940314 0.058833361
-0.15953454 2.9932811 0.053566694
-0.15346274 2.9923685 0.051142216
-0.14778483 2.9911504 0.054398775
-0.1421237 2.9899354 0.057654142
-0.13647653 2.988723 0.060908556
-0.1306182 2.9876621 0.061323643
-0.12452072 2.9867475 0.058901072
-0.11841203 2.9858313 0.056479692
-0.11253698 2.9847672 0.056895971
-0.1071793 2.9834173 0.06298399
-0.10131818 2.9823558 0.063399315
-0.09518671 2.9814382 0.060979605
-0.089036107 2.980514 0.058561087
-0.083453193 2.9793134 0.061810732
-0.077586487 2.978251 0.062226295
-0.072023332 2.9770536 0.065474987
-0.066164494 2.9759955 0.065890312
-0.060306221 2.9749346 0.066305161
-0.053792864 2.9741375 0.061058283
-0.046914846 2.9734614 0.052982569
-0.041362315 2.9722688 0.056230545
-0.035476059 2.9712029 0.056647539
-0.029946506 2.9700117 0.059893608
-0.023335338 2.969197 0.054653406
-0.017813534 2.9680102 0.057899237
-0.012690991 2.9667027 0.063970804
-0.0075958669 2.9654005 0.070040464
-0.001347214 2.9644616 0.06762886
0.005322814 2.9636362 0.062393188
0.011201203 2.9625745 0.062809944
0.016237408 2.9612827 0.068875074
0.021242678 2.9599996 0.074938774
0.027087182 2.9589412 0.075352907
0.033375114 2.9579949 0.072944164
0.038777202 2.95683 0.07618165
0.044161588 2.955668 0.079417706
0.049528867 2.9545062 0.082651854
0.055828542 2.953558 0.080244541
0.06166178 2.9525044 0.080657959
0.067005008 2.95135 0.083890676
0.072829366 2.9502978 0.084303617
0.079157561 2.9493446 0.081898212
0.083964556 2.9480975 0.087947369
0.090296656 2.9471433 0.085541725
0.095591754 2.9459975 0.088771582
0.10300806 2.9452267 0.080734253
0.10884127 2.9441733 0.081147909
0.1152249 2.9432127 0.07874608
0.12106404 2.9421582 0.079159975
0.12634045 2.9410157 0.082388401
0.13274327 2.9400489 0.079987764
0.13858238 2.9389942 0.080401659
0.14559349 2.9381099 0.075190306
0.15144736 2.9370527 0.075605154
0.15850368 2.9361603 0.0703969
0.16375652 2.9350221 0.073623896
0.16899565 2.9338865 0.076849461
0.17484358 2.9328301 0.077263832
0.18195882 2.9319272 0.07205987
0.18910196 2.931016 0.066857338
0.19562593 2.9300301 0.064465761
0.2015073 2.928968 0.064882517
0.20606199 2.9277663 0.07091403
0.21259686 2.9267786 0.068523169
0.21914837 2.9257877 0.066133499
0.22640052 2.9248569 0.060938835
0.23298535 2.9238598 0.058551311
0.23888639 2.9227941 0.058969736
0.24620375 2.9218545 0.05377984
0.25355062 2.9209094 0.048592329
0.25947759 2.9198418 0.049012661
0.26540014 2.918772 0.049432516
0.2720665 2.9177604 0.047050953
0.27949283 2.916801 0.041868687
0.28694668 2.9158366 0.036688566
0.29290655 2.9147601 0.037111044
0.29963669 2.9137368 0.034734011
0.30637863 2.9127114 0.032357693
0.31470737 2.9117785 0.024385452
0.32228687 2.9107912 0.019213915
0.32909265 2.9097543 0.016842127
0.33591601 2.9087141 0.014471769
0.34275267 2.9076686 0.012102127
0.35207257 2.9067488 0.0013456345
0.36062512 2.9057753 -0.0066111088
0.3700569 2.9048352 -0.017359495
0.37785819 2.9038076 -0.022515059
0.38995478 2.9029543 -0.041637897
0.40216127 2.9020813 -0.06075263
-0.43029916 3.0507631 -0.19163942
-0.42244434 3.0475144 -0.16253376
-0.41580123 3.0459435 -0.15635371
-0.40893927 3.0439672 -0.14444804
-0.40213615 3.042002 -0.13254666
-0.39517409 3.0396426 -0.11492395
-0.38819802 3.0370996 -0.094445705
-0.3818033 3.0355735 -0.088282824
-0.37543899 3.0340528 -0.082122326
-0.36910319 3.0325372 -0.075963974
-0.36265343 3.0306358 -0.064087629
-0.35639226 3.029134 -0.057934523
-0.35010427 3.0274458 -0.048924208
-0.34386048 3.0257659 -0.039917231
-0.33770332 3.0242827 -0.033771276
-0.33157754 3.0228052 -0.027627945
-0.32547879 3.0213356 -0.021485806
-0.3194308 3.0200534 -0.01820302
-0.31340814 3.0189598 -0.017776728
-0.30737931 3.017684 -0.014494658
-0.30136251 3.0165915 -0.014068604
-0.29534176 3.0154984 -0.013642311
-0.28934437 3.0142281 -0.010362387
-0.28338844 3.0127814 -0.0042309761
-0.27749801 3.0111654 0.004750967
-0.27152193 3.0100832 0.0051743984
-0.26559764 3.0088234 0.0084488392
-0.25962946 3.0077426 0.0088715553
-0.25372726 3.0064895 0.012144327
-0.24798408 3.0049002 0.021116018
-0.24212605 3.0036554 0.024385691
-0.23628472 3.0024135 0.027654409
-0.2303597 3.0013404 0.028074265
-0.22443458 3.0002646 0.028493643
-0.21839732 2.9993525 0.026066303
-0.21258417 2.9981155 0.029333115
-0.20691085 2.9967229 0.035444736
-0.20140511 2.9951794 0.044399738
-0.1956591 2.9939549 0.047661781
-0.18977845 2.9928899 0.048078299
-0.18389547 2.9918215 0.048494816
-0.1783451 2.9904513 0.054597616
-0.17265171 2.989239 0.057856083
-0.16643271 2.9884751 0.052586794
-0.16037032 2.9875584 0.050161362
-0.15448682 2.9864929 0.050578117
-0.14921619 2.984992 0.059516191
-0.14314535 2.9840736 0.057091236
-0.13771485 2.982728 0.063186169
-0.13163841 2.9818087 0.060761452
-0.12554237 2.980886 0.058338165
-0.11967568 2.9798236 0.058753967
-0.1135596 2.9789 0.056332588
-0.10794178 2.9777014 0.059585333
-0.10207507 2.976639 0.060000896
-0.096480116 2.9754417 0.063252211
-0.090341657 2.974514 0.060832262
-0.084474847 2.9734516 0.061247826
-0.078607664 2.9723921 0.061663866
-0.072740942 2.9713295 0.06207943
-0.067187533 2.9701426 0.065327883
-0.061648041 2.9689584 0.068575621
-0.055470407 2.9680235 0.066158295
-0.048610359 2.9673276 0.058079481
-0.043073624 2.9661438 0.061326742
-0.037200838 2.9650831 0.061743021
-0.031683713 2.963903 0.064988852
-0.02545616 2.9629591 0.06257534
-0.019213825 2.9620128 0.060162783
-0.013713598 2.9608355 0.063407421
-0.0082330108 2.9596617 0.066650629
-0.0023683608 2.9586027 0.067066431
0.0038965046 2.9576521 0.064655542
0.010174185 2.9566994 0.062245607
0.015633166 2.9555295 0.065487146
0.020650208 2.9542615 0.071552992
0.025635302 2.9529965 0.077616453
0.031470984 2.9519396 0.078029871
0.036857873 2.9507856 0.081266403
0.042685181 2.9497333 0.081679344
0.048510581 2.9486811 0.082092285
0.055282205 2.947823 0.076862812
0.061120838 2.9467657 0.07727623
0.066960424 2.9457138 0.077690601
0.072306544 2.9445646 0.080924511
0.078638703 2.9436047 0.078518391
0.083456963 2.9423699 0.084569454
0.08876133 2.941231 0.087800741
0.094049543 2.9400921 0.091030359
0.10198438 2.9393885 0.080173254
0.10728088 2.938251 0.083403826
0.11310628 2.9371989 0.083816767
0.11837438 2.9360666 0.087044716
0.12419191 2.9350159 0.08745718
0.13172159 2.9342046 0.079426289
0.1375607 2.9331498 0.079840183
0.14398512 2.9321735 0.077440739
0.14982718 2.9311185 0.077854872
0.15627316 2.9301379 0.075457096
0.16212109 2.9290817 0.075871706
0.16797248 2.9280279 0.076286554
0.17444351 2.9270401 0.073890448
0.18092981 2.9260523 0.071495295
0.18807009 2.9251304 0.066291571
0.19459209 2.9241333 0.063898802
0.20047686 2.9230733 0.064316273
0.20569488 2.9219499 0.067541122
0.21223709 2.9209521 0.065150023
0.21879497 2.9199514 0.062760353
0.22536471 2.9189487 0.060370922
0.23056695 2.9178283 0.063595057
0.2371504 2.9168229 0.061206579
0.24374858 2.9158151 0.058819532
0.25179258 2.9149103 0.050825119
0.25843492 2.9138944 0.048440933
0.26436189 2.9128268 0.048861265
0.27102378 2.9118073 0.046478748
0.27844676 2.9108341 0.041295052
0.28590068 2.9098523 0.036113739
0.29033557 2.9086897 0.0421381
0.29781839 2.9077055 0.036958933
0.3053287 2.9067163 0.031781673
0.31365255 2.9057612 0.023807049
0.32043818 2.9047194 0.021433115
0.32723656 2.9036751 0.019060135
0.3348588 2.9026656 0.013890743
0.34169152 2.9016151 0.011520386
0.35018709 2.9006288 0.003557682
0.3587245 2.8996377 -0.0044016838
0.36730841 2.8986354 -0.01235795
0.37508962 2.8975973 -0.017516136
0.3854591 2.8966367 -0.031055689
0.39762309 2.8957164 -0.050178289
-0.42341107 3.0409255 -0.16028118
-0.4169091 3.0395696 -0.15696549
-0.41003886 3.0376239 -0.14505649
-0.40323037 3.0356891 -0.13315225
-0.3962605 3.0333745 -0.11552525
-0.38938043 3.0310791 -0.097904921
-0.38278401 3.0291829 -0.086015224
-0.37642413 3.0276775 -0.07985425
-0.37001055 3.0259898 -0.070833206
-0.36357218 3.0241222 -0.058955193
-0.35725972 3.0224528 -0.049941301
-0.35110429 3.0211599 -0.046649933
-0.3449167 3.0196886 -0.040500402
-0.33880052 3.0184026 -0.037211895
-0.33262843 3.0167587 -0.028208256
-0.32652771 3.0153 -0.022064924
-0.32045791 3.0138502 -0.015924215
-0.31443107 3.0125804 -0.012641907
-0.3084133 3.0111396 -0.0065045357
-0.30241442 3.010226 -0.0089352131
-0.29642385 3.0089626 -0.0056557655
-0.29042572 3.0078735 -0.0052309036
-0.28448451 3.0064468 0.00090098381
-0.27857083 3.0050251 0.0070309639
-0.27268559 3.0036085 0.013159037
-0.26668274 3.0026939 0.010728359
-0.26066768 3.0017743 0.0082986355
-0.25476301 3.0005295 0.011572361
-0.24894452 2.999125 0.017695665
-0.24307914 2.9978874 0.020966768
-0.23722553 2.9966521 0.024236679
-0.23138914 2.9954166 0.027505636
-0.22546372 2.9943438 0.027925491
-0.21964911 2.9931152 0.031193018
-0.21396764 2.9917355 0.03730607
-0.20819218 2.9905143 0.040570974
-0.20269662 2.9889958 0.049527168
-0.19682206 2.9879289 0.04994297
-0.19094975 2.9868655 0.050359011
-0.1850746 2.9858015 0.05077529
-0.17953026 2.9844465 0.056879044
-0.1736719 2.9833856 0.05729413
-0.16745533 2.9826078 0.052023411
-0.16158028 2.9815438 0.052439451
-0.15589993 2.9803398 0.055697203
-0.15043953 2.9790001 0.061795473
-0.14437526 2.9780774 0.059369326
-0.13873406 2.9768803 0.062624693
-0.13265859 2.9759555 0.060199499
-0.12703139 2.974761 0.063453674
-0.12093917 2.9738331 0.061029673
-0.11483014 2.9729023 0.058606863
-0.10870758 2.9719658 0.056185007
-0.10309672 2.9707773 0.059438229
-0.097230017 2.9697149 0.059853792
-0.090805948 2.9689023 0.054598093
-0.085496008 2.9675927 0.060685158
-0.079924837 2.9664085 0.063935518
-0.07467097 2.9651091 0.070019245
-0.068517178 2.96417 0.067599535
-0.062349349 2.9632285 0.065181017
-0.056167588 2.9622843 0.062763214
-0.049969047 2.9613373 0.06034708
-0.044776231 2.9600518 0.066426277
-0.03892073 2.9589913 0.066841125
-0.033419043 2.9578226 0.070086718
-0.026480734 2.9570923 0.062011719
-0.020979017 2.9559233 0.065257072
-0.014739186 2.9549687 0.0628438
-0.0096416771 2.9536977 0.068916082
-0.0033924878 2.9527442 0.066503525
0.0024692118 2.9516857 0.066919088
0.0087405145 2.9507253 0.064507961
0.014608085 2.9496655 0.064923763
0.019627064 2.9484086 0.070990562
0.025047749 2.9472575 0.074230671
0.030451268 2.9461064 0.077469349
0.035393178 2.9448664 0.083530664
0.041666448 2.9439058 0.081119537
0.047029227 2.942765 0.084355593
0.053317219 2.9418015 0.081945419
0.05914256 2.9407494 0.08235836
0.065453589 2.9397848 0.079950571
0.071286827 2.9387314 0.080363989
0.077617496 2.9377632 0.077957153
0.081930429 2.9364617 0.086829424
0.087744534 2.9354146 0.087241888
0.09250924 2.9342039 0.093290806
0.099369735 2.933315 0.088065863
0.10572007 2.9323432 0.085660458
0.11099353 2.9312186 0.088890076
0.11680123 2.9301698 0.089301825
0.12261286 2.9291201 0.089713812
0.13012981 2.928288 0.081680059
0.13653609 2.9273062 0.079278708
0.142959 2.9263213 0.076878309
0.14821288 2.9252002 0.080106497
0.15524662 2.9242771 0.074893951
0.16170344 2.9232891 0.072496414
0.16756216 2.922231 0.072911739
0.17341551 2.9211767 0.073326826
0.1799033 2.9201801 0.070931196
0.18640175 2.9191813 0.068536043
0.19291452 2.9181831 0.066142321
0.19878992 2.9171221 0.066558838
0.20466295 2.9160643 0.066975355
0.21120659 2.9150574 0.064583778
0.21776155 2.9140515 0.062193394
0.22364786 2.9129884 0.062610626
0.22953263 2.9119287 0.063027859
0.2354174 2.9108686 0.06344533
0.24200526 2.9098539 0.061056614
0.24932513 2.9088819 0.055864334
0.25739279 2.9079499 0.047869682
0.26477793 2.9069691 0.042682409
0.27145514 2.9059381 0.040299892
0.27740172 2.9048669 0.040721655
0.28334734 2.903796 0.041143417
0.28929296 2.902725 0.04156518
0.29753825 2.9017611 0.033583164
0.3050535 2.9007537 0.028404474
0.3133823 2.8997746 0.020428419
0.31938186 2.8986938 0.020853996
0.32697913 2.8976746 0.015681505
0.33299246 2.8965912 0.016108036
0.34144685 2.8955894 0.0081408024
0.34912208 2.8945529 0.0029737949
0.35765502 2.8935368 -0.0049879551
0.36623558 2.8925149 -0.012946367
0.37401488 2.8914597 -0.018105984
0.38437805 2.8904629 -0.031648874
0.39567396 2.8894696 -0.047981739
0.41052434 2.8885343 -0.075484753
-0.42523271 3.035506 -0.1752255
-0.41869295 3.034152 -0.17190623
-0.41152436 3.0318503 -0.15426135
-0.40456897 3.0297513 -0.13948798
-0.39735079 3.0271072 -0.11612701
-0.39046198 3.0248563 -0.098502159
-0.38385826 3.0229905 -0.086609364
-0.3774074 3.0213192 -0.077584267
-0.37099972 3.0196557 -0.068561792
-0.36448854 3.0176399 -0.053819656
-0.35831788 3.0163527 -0.050526619
-0.35210529 3.0148911 -0.044374466
-0.34597343 3.0136082 -0.041084051
-0.33985281 3.0123301 -0.037794352
-0.3336437 3.0105357 -0.025929928
-0.32751775 3.0089233 -0.016927719
-0.32146221 3.0074904 -0.010786295
-0.31546211 3.0064008 -0.010361671
-0.30945539 3.0051434 -0.0070800781
-0.30346143 3.0038881 -0.0037994385
-0.29747504 3.0028012 -0.0033755302
-0.29150563 3.0015507 -9.6797943e-05
-0.28554949 3.0003052 0.0031814575
-0.27967286 2.9987378 0.012166262
-0.27376139 2.9974976 0.015440941
-0.26776981 2.9965763 0.013009071
-0.26176059 2.995652 0.010578156
-0.25579876 2.9945695 0.011000395
-0.24990742 2.9933357 0.014273882
-0.244112 2.99195 0.020396709
-0.23825888 2.9907234 0.023667336
-0.23242101 2.9894965 0.026937008
-0.22659659 2.9882748 0.030205965
-0.22100759 2.9867625 0.039170504
-0.2151134 2.985692 0.039587736
-0.20921634 2.9846213 0.040005445
-0.20345347 2.9834108 0.043269873
-0.19784468 2.9820616 0.049379587
-0.19211811 2.9808578 0.052641392
-0.18609771 2.9799314 0.050211668
-0.18038793 2.9787307 0.053472281
-0.17452122 2.9776683 0.053887844
-0.1684757 2.9767373 0.051459789
-0.16260341 2.9756737 0.05187583
-0.15692158 2.9744782 0.055134535
-0.1514554 2.9731548 0.061234236
-0.14560549 2.9720953 0.061648846
-0.13953711 2.971163 0.059222221
-0.13367878 2.9701021 0.059637308
-0.12828261 2.9687915 0.065732241
-0.12243825 2.9677329 0.066146374
-0.116101 2.9669189 0.060882568
-0.11023988 2.9658575 0.061297894
-0.10438162 2.9647965 0.06171298
-0.098791599 2.9636204 0.064965487
-0.092661649 2.962677 0.062543392
-0.087089017 2.9615011 0.065794468
-0.081532583 2.960331 0.069044828
-0.075987786 2.9591601 0.072293282
-0.069535911 2.9583251 0.067038298
-0.063055456 2.9574878 0.061784983
-0.057188764 2.9564254 0.062200546
-0.051324397 2.9553664 0.062616348
-0.045799285 2.9541991 0.065864086
-0.039596021 2.9532452 0.063447475
-0.034085095 2.9520805 0.06669426
-0.027867794 2.9511242 0.064278603
-0.022003144 2.9500649 0.064694405
-0.016139001 2.949003 0.06510973
-0.010664314 2.9478476 0.06835413
-0.0048085153 2.9467902 0.068769217
0.0014451146 2.9458272 0.066356182
0.0081215799 2.9449518 0.061116934
0.013999939 2.9438901 0.061533689
0.019450098 2.942739 0.064776182
0.024026096 2.9414129 0.073669195
0.029432505 2.940273 0.076909065
0.034375876 2.9390471 0.082971573
0.040649176 2.9380808 0.080559969
0.046011895 2.9369457 0.083796501
0.051831394 2.9358947 0.084208965
0.057648927 2.934844 0.084621429
0.063949704 2.9338727 0.082211733
0.069775552 2.9328234 0.082624912
0.075597972 2.9317718 0.083037615
0.080913633 2.9306452 0.086270809
0.086213082 2.9295244 0.089502811
0.092018813 2.9284761 0.08991456
0.098353952 2.9274983 0.087507248
0.10470182 2.9265184 0.085100889
0.11051983 2.9254706 0.085513353
0.11578441 2.9243534 0.088742971
0.12159362 2.9233072 0.089154959
0.12853852 2.9223857 0.083935022
0.13551441 2.9214618 0.078717232
0.14135155 2.9204075 0.079130888
0.14659703 2.9192965 0.082359314
0.15362343 2.9183605 0.077144623
0.16067782 2.9174223 0.071932793
0.16653362 2.9163647 0.072347879
0.17176926 2.9152555 0.075575352
0.17887375 2.9143083 0.070366621
0.18473545 2.9132495 0.070782185
0.19188502 2.9122941 0.065576553
0.19841012 2.9112849 0.063183308
0.20495227 2.9102697 0.060790777
0.21083906 2.9092095 0.061208487
0.21740142 2.9081936 0.058817387
0.22329691 2.9071317 0.059235573
0.22987792 2.9061124 0.056845903
0.2350792 2.9050095 0.06007123
0.24096993 2.9039485 0.060488939
0.24828735 2.9029627 0.055295467
0.25491002 2.901933 0.052908659
0.26300517 2.9009728 0.044914007
0.26893708 2.8999045 0.045334816
0.27635565 2.8989003 0.040148258
0.28155109 2.8977983 0.043373108
0.28748587 2.8967295 0.043793917
0.29495457 2.8957162 0.038611174
0.30245456 2.8946972 0.033430576
0.31076178 2.8936987 0.025450706
0.31753615 2.8926444 0.023075342
0.32432571 2.8915904 0.020700693
0.33113047 2.8905303 0.018326759
0.34038129 2.889528 0.007557869
0.34805706 2.8884771 0.0023899078
0.35658607 2.8874385 -0.0055742264
0.36599687 2.8864071 -0.016331673
0.37546709 2.8853679 -0.027085066
0.38499466 2.8843153 -0.037834406
0.39458403 2.8832512 -0.048579454
-0.42764801 3.0307517 -0.20164514
-0.42021322 3.0282898 -0.18112087
-0.41275761 3.0256662 -0.15773821
-0.40554368 3.0232444 -0.1372292
-0.39820808 3.0204816 -0.11099863
-0.39154011 3.0186357 -0.099099159
-0.38483459 3.0166252 -0.084339619
-0.37829572 3.0147998 -0.072449446
-0.3718152 3.0129881 -0.060563326
-0.36539656 3.0111876 -0.048681259
-0.35917369 3.0097387 -0.042527199
-0.35304034 3.0084641 -0.039236069
-0.34697542 3.0073628 -0.038806677
-0.34086269 3.0060921 -0.035517216
-0.33465314 3.0043292 -0.023649931
-0.3285929 3.0030708 -0.020364285
-0.3225261 3.0016503 -0.014220953
-0.31650519 3.0003989 -0.010937691
-0.31048137 2.9988279 -0.0019407272
-0.30450556 2.9975848 0.0013394356
-0.29853293 2.9965003 0.0017621517
-0.29256031 2.9954157 0.0021851063
-0.28660908 2.9941769 0.0054636002
-0.28073639 2.9926333 0.014449596
-0.27487034 2.9912519 0.020578861
-0.26889694 2.9903255 0.018144846
-0.2629059 2.9893956 0.015712261
-0.25689763 2.9884658 0.013281107
-0.25108165 2.9870932 0.019406557
-0.24529704 2.9857266 0.025529861
-0.23946068 2.9845088 0.028800249
-0.23372906 2.9831517 0.0349195
-0.22802556 2.9817998 0.04103756
-0.22235554 2.9804537 0.047152758
-0.21636742 2.9795246 0.044719934
-0.21036476 2.9785957 0.042288065
-0.20447567 2.9775293 0.042705297
-0.19886732 2.9761944 0.048816204
-0.19328403 2.9748642 0.054925442
-0.18758114 2.9736733 0.058186293
-0.18189278 2.9724822 0.06144619
-0.17570955 2.9716785 0.056170225
-0.16985118 2.9706178 0.056585073
-0.16380946 2.9696817 0.054156303
-0.15832691 2.9683697 0.060258389
-0.15247414 2.9673097 0.060672998
-0.14683007 2.9661295 0.063929796
-0.14077151 2.9651904 0.061502218
-0.13492158 2.9641311 0.06191659
-0.12929988 2.962955 0.065171719
-0.12369213 2.9617813 0.068425655
-0.11761118 2.9608381 0.065999985
-0.1115135 2.959892 0.063574791
-0.10566311 2.9588354 0.063989639
-0.099542961 2.957885 0.061566114
-0.093960404 2.9567161 0.064818621
-0.08867605 2.9554429 0.070906639
-0.082842812 2.9543865 0.071319818
-0.077006429 2.9533324 0.071733475
-0.070863932 2.952378 0.069312096
-0.064706981 2.9514241 0.06689167
-0.058857068 2.9503646 0.067306042
-0.053006649 2.9493082 0.067720652
-0.047156245 2.9482515 0.0681355
-0.040963352 2.947288 0.06571722
-0.034753591 2.9463246 0.063300371
-0.028888971 2.9452653 0.063715935
-0.023027748 2.9442039 0.06413126
-0.017539829 2.9430549 0.067377329
-0.012068599 2.9419088 0.070622206
-0.0062206686 2.9408526 0.071036577
-0.00037664175 2.9397972 0.071450949
0.006282717 2.9389102 0.066208839
0.012144417 2.9378517 0.066624403
0.018425018 2.9368753 0.064212799
0.023004889 2.9355714 0.073107958
0.028412312 2.934437 0.076348305
0.033802092 2.9333057 0.079586983
0.040534526 2.9324086 0.074350834
0.045916408 2.9312785 0.077589273
0.050814599 2.9300783 0.083650112
0.056157231 2.9289556 0.086885929
0.061965972 2.9279065 0.087297678
0.0682652 2.9269266 0.084887266
0.074080259 2.9258792 0.085299492
0.078884214 2.924696 0.091354132
0.084681123 2.9236491 0.091765165
0.090478539 2.922605 0.092176199
0.097334176 2.9216826 0.086948156
0.10368207 2.920697 0.084541321
0.1100466 2.919708 0.082136154
0.1153186 2.9185982 0.085366488
0.12057677 2.9174907 0.088596106
0.12695313 2.9164999 0.086191416
0.13391724 2.9155607 0.080971718
0.14032987 2.9145632 0.078569412
0.14557487 2.913461 0.081798553
0.15200028 2.9124613 0.079397202
0.1584399 2.9114561 0.076996565
0.16489378 2.9104512 0.074597597
0.17074221 2.9093976 0.075012207
0.17721573 2.9083893 0.07261467
0.18243617 2.9072914 0.075841665
0.18956521 2.9063225 0.070633411
0.19607505 2.9053075 0.06823802
0.20325854 2.9043314 0.063033819
0.20914033 2.9032719 0.063451052
0.2150192 2.9022131 0.063868046
0.22089806 2.9011543 0.06428504
0.22746387 2.9001291 0.061893702
0.23334864 2.8990691 0.062311172
0.239934 2.8980405 0.059921265
0.24724904 2.8970404 0.054726362
0.25387076 2.8960052 0.052338839
0.26196203 2.8950229 0.044342279
0.26862898 2.8939793 0.041958094
0.27531013 2.8929362 0.0395751
0.28050795 2.8918426 0.042800665
0.28644279 2.8907735 0.043221712
0.29467443 2.8897657 0.03523469
0.30217543 2.8887293 0.0300529
0.31048855 2.8877068 0.022071838
0.31648275 2.8866298 0.022497177
0.32406524 2.8855786 0.017320871
0.33087501 2.8845122 0.014946938
0.34012929 2.8834774 0.004175663
0.34862694 2.8824215 -0.0037920475
0.35634437 2.8813486 -0.0089585781
0.36492255 2.8802781 -0.016920805
0.37438443 2.8792086 -0.027677298
0.38475707 2.8781321 -0.041226149
0.39520469 2.8770392 -0.054769993
-0.42188084 3.0225604 -0.19320703
-0.41412544 3.0196416 -0.16408324
-0.40676218 3.0170979 -0.14070201
-0.39940864 3.0144036 -0.11446381
-0.39262116 3.0124159 -0.099696159
-0.38600719 3.0106087 -0.087797642
-0.37945461 3.0088155 -0.075903654
-0.37296337 3.0070307 -0.064014435
-0.36653048 3.0052593 -0.05212903
-0.36022693 3.0036607 -0.043110132
-0.3540951 3.0023949 -0.039818525
-0.34802824 3.0012934 -0.039388895
-0.34191602 3.0000312 -0.036098957
-0.33574104 2.998456 -0.027089357
-0.32961023 2.9968886 -0.018083096
-0.32357013 2.9956427 -0.014797688
-0.31754827 2.9943969 -0.01151371
-0.31153715 2.9931531 -0.0082309246
-0.30554298 2.9917629 -0.0020914078
-0.2995615 2.9906766 -0.0016679764
-0.29361254 2.9892948 0.004468441
-0.28762293 2.9883566 0.0020349026
-0.28171027 2.9869812 0.0081684589
-0.27578798 2.9857564 0.011445522
-0.26988238 2.9845345 0.014721155
-0.26393825 2.9834552 0.015141964
-0.25805277 2.982234 0.018416166
-0.25211447 2.9811559 0.018836737
-0.24632894 2.9798062 0.024961472
-0.24048814 2.9785962 0.028232813
-0.23484373 2.9771199 0.037204742
-0.22905064 2.9759185 0.040472746
-0.22326893 2.9747162 0.043739557
-0.21739101 2.9736519 0.044156075
-0.21138984 2.9727144 0.04172349
-0.20563012 2.971519 0.044988871
-0.1998871 2.9703267 0.048253059
-0.19444978 2.9688878 0.057210684
-0.18859987 2.9678285 0.057625055
-0.18290721 2.9666452 0.060885906
-0.17672923 2.9658282 0.055608273
-0.17087135 2.9647644 0.056023121
-0.16483112 2.96382 0.053593397
-0.15934564 2.9625249 0.059697151
-0.15369166 2.9613514 0.062955379
-0.148055 2.9601784 0.0662117
-0.14221904 2.9591215 0.066625118
-0.13594031 2.9582863 0.061355352
-0.13031715 2.9571183 0.064611435
-0.12447278 2.9560599 0.06502533
-0.11887194 2.9548962 0.068279505
-0.11278413 2.9539433 0.065853357
-0.10720009 2.9527826 0.06910634
-0.10109833 2.951827 0.066681385
-0.095531061 2.9506693 0.069932938
-0.089694604 2.9496152 0.070346594
-0.083858609 2.9485583 0.07076025
-0.077725545 2.9475999 0.068337679
-0.071575642 2.9466386 0.065915823
-0.066039234 2.9454865 0.069165707
-0.059875295 2.9445226 0.066745043
-0.054028243 2.9434638 0.067159176
-0.048514128 2.9423156 0.070407629
-0.042672157 2.9412606 0.070821762
-0.036127448 2.9403801 0.065570354
-0.030271143 2.9393196 0.065985203
-0.024048418 2.9383478 0.06356883
-0.019310564 2.9370384 0.072477341
-0.013470471 2.9359839 0.072891474
-0.0076313317 2.9349291 0.073305368
-0.0017922223 2.9338746 0.073719263
0.0048558414 2.9329755 0.068475246
0.010294676 2.9318409 0.071718216
0.016559601 2.9308617 0.069304943
0.021556407 2.9296579 0.075374365
0.027392566 2.9286039 0.075788021
0.032783836 2.9274809 0.079027414
0.03951332 2.9265668 0.073789597
0.044437528 2.9253762 0.079853535
0.049795359 2.9242594 0.083091021
0.055139452 2.9231451 0.086327553
