# .PCD v0.7 - Point Cloud Data file format
VERSION 0.7
FIELDS x y z
SIZE 4 4 4
TYPE F F F
COUNT 1 1 1
WIDTH 1415
HEIGHT 1
VIEWPOINT 0 0 0 1 0 0 0
POINTS 1415
DATA ascii
0.10202776 -0.24090309 0.55200005
0.10353003 -0.24090758 0.55200005
0.10503242 -0.2409122 0.55200005
0.10692095 -0.24178989 0.55400002
0.10803764 -0.240922 0.55200005
0.109342 -0.24049069 0.551
0.11064109 -0.24005957 0.55000001
0.11275044 -0.24137457 0.55300003
0.11466968 -0.2422533 0.55500001
0.11597198 -0.24182279 0.55400002
0.11726901 -0.24139248 0.55300003
0.11834598 -0.24052581 0.551
0.12006478 -0.24096894 0.55200005
0.12156899 -0.2409758 0.55200005
0.12307339 -0.24098283 0.55200005
0.12435231 -0.24055351 0.551
0.12539759 -0.23968786 0.54900002
0.12712561 -0.2401322 0.55000001
0.12839158 -0.23970358 0.54900002
0.13036209 -0.24058507 0.551
0.1313865 -0.2397203 0.54900002
0.1336105 -0.24103907 0.55200005
0.134872 -0.24061145 0.551
0.13662337 -0.24105754 0.55200005
0.13787995 -0.24063045 0.551
0.1391314 -0.24020363 0.55000001
0.14063334 -0.24021383 0.55000001
0.14161876 -0.2393508 0.54800004
0.14311589 -0.23936157 0.54800004
0.14408554 -0.238499 0.546
0.14584449 -0.23894721 0.54700005
0.14733987 -0.23895894 0.54700005
0.14883561 -0.23897097 0.54700005
0.15005688 -0.23854642 0.546
0.15155062 -0.23855914 0.546
0.15360536 -0.23944607 0.54800004
0.15567143 -0.24033348 0.55000001
0.15631999 -0.23903638 0.54700005
0.15724102 -0.23817648 0.54500002
0.15873402 -0.23819096 0.54500002
0.16081551 -0.23908001 0.54700005
0.16201814 -0.23865817 0.546
0.16351527 -0.23867388 0.546
0.16501285 -0.23868999 0.546
0.16620597 -0.23826928 0.54500002
0.16770181 -0.23828618 0.54500002
0.1688877 -0.23786625 0.54400003
0.17100824 -0.23875856 0.546
0.17156059 -0.23746485 0.54300004
0.17305304 -0.2374834 0.54300004
0.17390318 -0.23662765 0.54100001
0.17539129 -0.23664707 0.54100001
0.17753391 -0.23754188 0.54300004
0.17902875 -0.23756234 0.54300004
0.18085662 -0.23802079 0.54400003
0.18202026 -0.23760468 0.54300004
0.18284105 -0.23675133 0.54100001
0.18297005 -0.23502305 0.537
0.18376459 -0.23417035 0.53500003
0.1852413 -0.23419347 0.53500003
0.18741675 -0.2350927 0.537
0.18960397 -0.23599267 0.53900003
0.19109392 -0.2360176 0.53900003
0.19222733 -0.23560515 0.53800005
0.19371606 -0.23563114 0.53800005
0.19593124 -0.23653375 0.54000002
0.19742712 -0.236561 0.54000002
0.19855545 -0.2361507 0.53900003
0.20042141 -0.23661727 0.54000002
0.20154592 -0.2362081 0.53900003
0.20304249 -0.2362377 0.53900003
0.20416048 -0.23582961 0.53800005
0.20527384 -0.23542202 0.537
0.20599759 -0.23457652 0.53500003
0.20709898 -0.23416996 0.53400004
0.20858638 -0.23420252 0.53400004
0.20928797 -0.23335841 0.53200001
0.21156423 -0.23426963 0.53400004
0.21265575 -0.23386547 0.53300005
0.21454629 -0.23433952 0.53400004
0.21522978 -0.23349766 0.53200001
0.21671797 -0.23353428 0.53200001
0.21820728 -0.23357159 0.53200001
0.22052369 -0.23448788 0.53400004
0.22202094 -0.23452681 0.53400004
0.22393802 -0.2350058 0.53500003
0.22501917 -0.23460701 0.53400004
0.22694431 -0.23508769 0.53500003
0.22716835 -0.23381132 0.53200001
0.22694702 -0.23209575 0.528
0.22800237 -0.23169929 0.52700001
0.22948892 -0.23174322 0.52700001
0.2322917 -0.23310746 0.53000003
0.23423059 -0.23359324 0.53100002
0.23573264 -0.23364006 0.53100002
0.23634265 -0.23280756 0.52900004
0.23694278 -0.23197559 0.52700001
0.23889041 -0.23246494 0.528
0.24221115 -0.23427652 0.53200001
0.2469306 -0.2374112 0.53900003
0.24892564 -0.23790479 0.54000002
0.25231954 -0.23972154 0.54400003
0.25387126 -0.239777 0.54400003
0.25589424 -0.24027433 0.54500002
0.25792477 -0.24077289 0.546
0.25948757 -0.2408316 0.546
0.26200852 -0.24177377 0.54800004
0.26309982 -0.24139352 0.54700005
0.26757434 -0.24410401 0.55300003
0.27111188 -0.24593395 0.55700004
0.27467453 -0.24776593 0.56100005
0.27629229 -0.24783292 0.56100005
0.2779122 -0.24790107 0.56100005
0.28003258 -0.24841242 0.56200004
0.28165978 -0.24848308 0.56200004
0.28278515 -0.24811266 0.56100005
0.28492105 -0.24862802 0.56200004
0.28451562 -0.24693224 0.55800003
0.28306371 -0.24435134 0.55200005
0.28364205 -0.24354123 0.55000001
0.28472981 -0.24317482 0.54900002
0.28581417 -0.24280941 0.54800004
0.28479722 -0.24067211 0.54300004
0.28902772 -0.24296838 0.54800004
0.29169908 -0.2439369 0.55000001
0.29331827 -0.24402004 0.55000001
0.29279512 -0.24232925 0.546
0.297104 -0.24463446 0.551
0.29981872 -0.24561025 0.55300003
0.30200306 -0.2461438 0.55400002
0.30090761 -0.24401237 0.54900002
0.30309182 -0.24454851 0.55000001
0.30583912 -0.24553134 0.55200005
0.30804434 -0.24607138 0.55300003
0.30801854 -0.24483271 0.55000001
0.30459976 -0.24092257 0.54100001
0.30509239 -0.24012934 0.53900003
0.30785236 -0.24111968 0.54100001
0.31005567 -0.24166653 0.54200006
0.30996799 -0.24043109 0.53900003
0.30986559 -0.23919611 0.53600001
0.31207296 -0.23974745 0.537
0.31136909 -0.23806761 0.53300005
0.31123152 -0.23683469 0.53000003
0.31166953 -0.23604929 0.528
0.31328568 -0.23615938 0.528
0.31550196 -0.23671867 0.52900004
0.31293216 -0.23369858 0.52200001
0.31213081 -0.23202094 0.51800001
0.31130856 -0.23034334 0.514
0.31533548 -0.23225267 0.51800001
0.31633189 -0.23192269 0.51700002
0.31548116 -0.23024762 0.51300001
0.3189362 -0.23171598 0.51600003
0.31930798 -0.23094113 0.514
0.32279328 -0.23241499 0.51700002
0.32441923 -0.2325429 0.51700002
0.32352698 -0.23087263 0.51300001
0.32388148 -0.23010294 0.51100004
0.32996064 -0.23338926 0.51800001
0.33096758 -0.23307474 0.51700002
0.32939944 -0.23095743 0.51200002
0.32327816 -0.22568004 0.5
0.32813072 -0.228076 0.505
0.32975531 -0.22821726 0.505
0.33007246 -0.22745635 0.50300002
0.33598444 -0.2295599 0.50700003
0.34296337 -0.23333532 0.51500005
0.33929238 -0.22986378 0.50700003
0.33960938 -0.22911182 0.505
0.3405945 -0.22881502 0.50400001
0.35651839 -0.23851492 0.52500004
0.34597367 -0.23049994 0.50700003
0.35520101 -0.23566966 0.51800001
0.36037329 -0.23811743 0.523
0.3704319 -0.24376057 0.53500003
0.37988159 -0.24895857 0.546
0.36913735 -0.24093385 0.528
0.36249316 -0.23563936 0.51600003
0.36142135 -0.2339953 0.51200002
0.36316615 -0.23418064 0.51200002
0.36064124 -0.23162231 0.50600004
0.36954051 -0.23639232 0.51600003
0.38870305 -0.24571368 0.53500003
-0.18603723 -0.23482515 0.53300005
-0.18298508 -0.23651604 0.537
-0.18048972 -0.23517209 0.53400004
-0.17868207 -0.23470965 0.53300005
-0.1775455 -0.23512837 0.53400004
-0.17640409 -0.23554753 0.53500003
-0.17558476 -0.23640731 0.537
-0.17280972 -0.23462626 0.53300005
-0.17198609 -0.23548692 0.53500003
-0.17019588 -0.23502752 0.53400004
-0.16935964 -0.23588894 0.53600001
-0.16757329 -0.23543048 0.53500003
-0.16548251 -0.23453252 0.53300005
-0.16371095 -0.23407508 0.53200001
-0.16286033 -0.23493804 0.53400004
-0.16230148 -0.23624118 0.537
-0.16142717 -0.23710467 0.53900003
-0.1596521 -0.23664886 0.53800005
-0.15876502 -0.23751301 0.54000002
-0.15611979 -0.23573858 0.53600001
-0.15436253 -0.23528409 0.53500003
-0.15203957 -0.23395051 0.53200001
-0.15114872 -0.23481612 0.53400004
-0.14968669 -0.23480257 0.53400004
-0.14905779 -0.23610841 0.537
-0.14786318 -0.23653518 0.53800005
-0.14720765 -0.23784146 0.54100001
-0.14599738 -0.23826878 0.54200006
-0.14558186 -0.24001509 0.546
-0.14408919 -0.24000332 0.546
-0.14259692 -0.23999189 0.546
-0.1413634 -0.2404203 0.54700005
-0.1403804 -0.24128844 0.54900002
-0.13913384 -0.24171738 0.55000001
-0.13763188 -0.24170707 0.55000001
-0.13637771 -0.24213652 0.551
-0.13536316 -0.24300568 0.55300003
-0.13361181 -0.24255681 0.55200005
-0.13186617 -0.2421082 0.551
-0.13036288 -0.24209931 0.551
-0.12862594 -0.24165133 0.55000001
-0.12735701 -0.24208234 0.551
-0.12539761 -0.24119557 0.54900002
-0.12390072 -0.24118775 0.54900002
-0.12195813 -0.24030155 0.54700005
-0.12068735 -0.24073352 0.54800004
-0.11919382 -0.24072644 0.54800004
-0.11855962 -0.24247664 0.55200005
-0.11705558 -0.24246994 0.55200005
-0.11597039 -0.24334192 0.55400002
-0.11446127 -0.24333563 0.55400002
-0.11336011 -0.24420802 0.55600005
-0.11144355 -0.24332368 0.55400002
-0.11013338 -0.24375722 0.55500001
-0.10862219 -0.2437517 0.55500001
-0.10711119 -0.24374641 0.55500001
-0.10521975 -0.24286295 0.55300003
-0.10371446 -0.24285804 0.55300003
-0.10220931 -0.2428533 0.55300003
-0.10070428 -0.24284872 0.55300003
-0.09919937 -0.24284433 0.55300003
-0.097694576 -0.24284008 0.55300003
-0.096189909 -0.242836 0.55300003
-0.094514124 -0.24239294 0.55200005
-0.092843883 -0.24195002 0.551
-0.091676541 -0.24282466 0.55300003
-0.090661466 -0.24413845 0.55600005
-0.089469813 -0.24501324 0.55800003
-0.08763691 -0.24413183 0.55600005
-0.085814953 -0.24325053 0.55400002
-0.084308326 -0.24324754 0.55400002
-0.082951225 -0.24368377 0.55500001
-0.081295304 -0.24324195 0.55400002
-0.080076955 -0.24411747 0.55600005
-0.078706495 -0.24455401 0.55700004
-0.077053472 -0.24411254 0.55600005
-0.07513424 -0.24279311 0.55300003
-0.073897094 -0.24366896 0.55500001
-0.072910003 -0.24542302 0.55900002
-0.071390375 -0.24542099 0.55900002
-0.069620825 -0.24454102 0.55700004
-0.067739896 -0.24322207 0.55400002
-0.065994903 -0.24234231 0.55200005
-0.064611323 -0.24277966 0.55300003
-0.062994115 -0.24233906 0.55200005
-0.061716586 -0.24321559 0.55400002
-0.06021085 -0.24321416 0.55400002
-0.059023056 -0.24452984 0.55700004
-0.057612482 -0.24496755 0.55800003
-0.056196511 -0.24540535 0.55900002
-0.054579504 -0.24496515 0.55800003
-0.052682679 -0.24320804 0.55400002
-0.050992377 -0.242329 0.55200005
-0.049581941 -0.24276699 0.55300003
-0.048339985 -0.24408309 0.55600005
-0.046997514 -0.24496017 0.55800003
-0.045562688 -0.24539831 0.55900002
-0.043964874 -0.24495855 0.55800003
-0.042296428 -0.24407981 0.55600005
-0.04071223 -0.24364011 0.55500001
-0.039204121 -0.24363945 0.55500001
-0.037763946 -0.24407785 0.55600005
-0.036318347 -0.24451624 0.55700004
-0.034742355 -0.24407673 0.55600005
-0.033171806 -0.2436372 0.55500001
-0.03172081 -0.24407572 0.55600005
-0.030373057 -0.24539222 0.55900002
-0.02885416 -0.24539182 0.55900002
-0.027335268 -0.2453914 0.55900002
-0.025770206 -0.24495207 0.55800003
-0.024254046 -0.24495175 0.55800003
-0.022737894 -0.24495144 0.55800003
-0.021221746 -0.24495116 0.55800003
-0.019740922 -0.24538989 0.55900002
-0.018222069 -0.24538967 0.55900002
-0.01670322 -0.24538943 0.55900002
-0.015184376 -0.24538925 0.55900002
-0.013616643 -0.24451114 0.55700004
-0.012103238 -0.24451099 0.55700004
-0.010608848 -0.24494983 0.55800003
-0.0090927323 -0.24494971 0.55800003
-0.0075494633 -0.24407166 0.55600005
-0.006038785 -0.24407159 0.55600005
-0.0045199632 -0.24363254 0.55500001
-0.0030174321 -0.2440715 0.55600005
-0.0015040464 -0.24363247 0.55500001
3.9186816e-06 -0.24407144 0.55600005
0.0015173178 -0.24451044 0.55700004
0.0030415927 -0.24538842 0.55900002
0.0045522614 -0.24494947 0.55800003
0.0060574971 -0.24451056 0.55700004
0.0075573004 -0.24407166 0.55600005
0.0091005992 -0.24494971 0.55800003
0.010616714 -0.24494983 0.55800003
0.01211109 -0.24451099 0.55700004
0.013600033 -0.24407217 0.55600005
0.015083545 -0.24363333 0.55500001
0.016621416 -0.24407251 0.55600005
0.018164726 -0.24451172 0.55700004
0.019678144 -0.24451195 0.55700004
0.021229614 -0.24495117 0.55800003
0.022664234 -0.2440735 0.55600005
0.024218433 -0.24451278 0.55700004
0.025731873 -0.24451309 0.55700004
0.027245324 -0.24451348 0.55700004
0.028655514 -0.24363588 0.55500001
0.030217895 -0.24407528 0.55600005
0.031728655 -0.24407575 0.55600005
0.033299197 -0.2445152 0.55700004
0.034750197 -0.24407673 0.55600005
0.036065329 -0.2427603 0.55300003
0.037635915 -0.24319986 0.55400002
0.039141294 -0.24320047 0.55400002
0.040866796 -0.24451812 0.55700004
0.042152096 -0.24320182 0.55400002
0.043578718 -0.24276358 0.55300003
0.044918399 -0.24188635 0.551
0.046499949 -0.2423262 0.55200005
0.048173904 -0.24320507 0.55400002
0.049679402 -0.24320598 0.55400002
0.051277328 -0.24364598 0.55500001
0.052595377 -0.24276903 0.55300003
0.05419606 -0.24320912 0.55400002
0.055601124 -0.24277131 0.55300003
0.057207298 -0.24321151 0.55400002
0.058924925 -0.24409084 0.55600005
0.060653456 -0.24497025 0.55800003
0.061724391 -0.24321559 0.55400002
0.062887765 -0.24190006 0.551
0.064151712 -0.2410236 0.54900002
0.066002682 -0.24234231 0.55200005
0.067747712 -0.2432221 0.55400002
0.069253653 -0.24322391 0.55400002
0.070504189 -0.24234778 0.55200005
0.071743898 -0.24147169 0.55000001
0.073105961 -0.24103475 0.54900002
0.07473439 -0.24147595 0.55000001
0.076506928 -0.24235636 0.55200005
0.078431703 -0.24367589 0.55500001
0.079652682 -0.24280031 0.55300003
0.08130312 -0.243242 0.55400002
0.08251065 -0.24236658 0.55200005
0.084011756 -0.24236943 0.55200005
0.084738359 -0.24017698 0.54700005
0.086383671 -0.24061914 0.54800004
0.088034496 -0.24106145 0.54900002
0.090180084 -0.24282117 0.55300003
0.091186948 -0.24150734 0.55000001
0.092514634 -0.24107185 0.54900002
0.093665741 -0.24019739 0.54700005
0.095327921 -0.24064037 0.54800004
0.096818998 -0.24064445 0.54800004
0.098489575 -0.24108776 0.54900002
0.099619359 -0.24021389 0.54700005
0.10092323 -0.23977922 0.546
0.10240933 -0.23978391 0.546
0.10408586 -0.24022795 0.54700005
0.10557496 -0.24023297 0.54700005
0.10686847 -0.23979899 0.546
0.1081567 -0.23936522 0.54500002
0.10984197 -0.23981 0.546
0.11194066 -0.24113348 0.54900002
0.11405586 -0.24245721 0.55200005
0.11535018 -0.24202423 0.551
0.11642717 -0.24115218 0.54900002
0.11770824 -0.2407196 0.54800004
0.11941909 -0.24116573 0.54900002
0.12091534 -0.24117285 0.54900002
0.1224118 -0.24118018 0.54900002
0.12345709 -0.24030915 0.54700005
0.1247201 -0.23987758 0.546
0.12597789 -0.23944628 0.54500002
0.12769823 -0.23989391 0.546
0.12918764 -0.23990247 0.546
0.13067731 -0.23991127 0.546
0.1324093 -0.24035977 0.54700005
0.13414703 -0.24080859 0.54800004
0.13589047 -0.2412577 0.54900002
0.13713917 -0.2408282 0.54800004
0.13838267 -0.24039896 0.54700005
0.13987674 -0.24040951 0.54700005
0.14085422 -0.23954128 0.54500002
0.14234349 -0.23955241 0.54500002
0.14330521 -0.23868468 0.54300004
0.14505629 -0.23913597 0.54400003
0.1465438 -0.23914805 0.54400003
0.14830379 -0.23960005 0.54500002
0.14951992 -0.23917317 0.54400003
0.15073097 -0.23874658 0.54300004
0.15277787 -0.2396394 0.54500002
0.15427002 -0.23965324 0.54500002
0.15519096 -0.2387879 0.54300004
0.15610136 -0.23792283 0.54100001
0.15758379 -0.23793767 0.54100001
0.15965477 -0.23883259 0.54300004
0.16025329 -0.23752867 0.54000002
0.16173434 -0.23754467 0.54000002
0.16321588 -0.23756105 0.54000002
0.16500291 -0.23801781 0.54100001
0.16618046 -0.2375951 0.54000002
0.16766351 -0.23761277 0.54000002
0.16977358 -0.23851098 0.54200006
0.17094721 -0.23808949 0.54100001
0.17211589 -0.2376684 0.54000002
0.17327966 -0.23724769 0.53900003
0.17508696 -0.23770775 0.54000002
0.1769004 -0.23816837 0.54100001
0.17839019 -0.23818928 0.54100001
0.17954811 -0.23777038 0.54000002
0.18036593 -0.23691154 0.53800005
0.18117338 -0.23605302 0.53600001
0.1816297 -0.23475441 0.53300005
0.18275717 -0.234337 0.53200001
0.18457243 -0.23480111 0.53300005
0.18674298 -0.23570643 0.53500003
0.18857346 -0.2361718 0.53600001
0.19076483 -0.23707853 0.53800005
0.19189598 -0.23666383 0.537
0.19410276 -0.23757194 0.53900003
0.19559562 -0.23759919 0.53900003
0.19708931 -0.23762701 0.53900003
0.19821543 -0.23721454 0.53800005
0.19970809 -0.23724353 0.53800005
0.2008276 -0.2368321 0.537
0.20156573 -0.23598009 0.53500003
0.20191409 -0.23468734 0.53200001
0.20301138 -0.23427731 0.53100002
0.20487423 -0.2347503 0.53200001
0.20596786 -0.23434146 0.53100002
0.20666623 -0.23349175 0.52900004
0.20774791 -0.2330839 0.528
0.21001381 -0.23400116 0.53000003
0.21189286 -0.23447779 0.53100002
0.21297494 -0.23407197 0.53000003
0.21486175 -0.23455015 0.53100002
0.21594042 -0.23414563 0.53000003
0.21742487 -0.23418353 0.53000003
0.21932353 -0.23466414 0.53100002
0.22039728 -0.23426165 0.53000003
0.22188532 -0.23430182 0.53000003
0.22337458 -0.23434281 0.53000003
0.22486509 -0.23438457 0.53000003
0.22635692 -0.23442714 0.53000003
0.22656031 -0.2331433 0.52700001
0.22804633 -0.23318723 0.52700001
0.22953367 -0.23323199 0.52700001
0.23189917 -0.23416293 0.52900004
0.23339503 -0.23420957 0.52900004
0.23578033 -0.23514272 0.53100002
0.23639104 -0.23430547 0.52900004
0.23654217 -0.23302568 0.52600002
0.23713037 -0.23218937 0.52400005
0.24044101 -0.23401278 0.528
0.24423426 -0.23628126 0.53300005
0.24805757 -0.23855166 0.53800005
0.24959147 -0.23860651 0.53800005
0.25159383 -0.23910594 0.53900003
0.25360364 -0.23960657 0.54000002
0.25562099 -0.24010845 0.54100001
0.25717053 -0.24016765 0.54100001
0.25824371 -0.23978385 0.54000002
0.26027519 -0.24028918 0.54100001
0.26425028 -0.2425729 0.546
0.26874298 -0.24530333 0.55200005
0.27278256 -0.24759175 0.55700004
0.27438992 -0.24765939 0.55700004
0.27599949 -0.2477282 0.55700004
0.27511916 -0.24557379 0.55200005
0.27671862 -0.24564433 0.55200005
0.27630347 -0.24393551 0.54800004
0.28093848 -0.24667957 0.55400002
0.28153056 -0.24586326 0.55200005
0.28160042 -0.2446021 0.54900002
0.28217098 -0.24378708 0.54700005
0.28273234 -0.24297276 0.54500002
0.28328443 -0.24215916 0.54300004
0.28225344 -0.24000797 0.53800005
0.28594375 -0.24187295 0.54200006
0.28912964 -0.24329403 0.54500002
0.29180244 -0.24427085 0.54700005
0.29180759 -0.24301606 0.54400003
0.29449463 -0.24399611 0.546
0.29611164 -0.24408416 0.546
0.29773152 -0.24417366 0.546
0.29935429 -0.24426462 0.546
0.30208251 -0.24525215 0.54800004
0.3053799 -0.24668954 0.551
0.30535501 -0.24544224 0.54800004
0.30419487 -0.24329929 0.54300004
0.30244461 -0.24070783 0.537
0.30349264 -0.24035791 0.53600001
0.30510712 -0.24045782 0.53600001
0.30615258 -0.24011053 0.53500003
0.30662012 -0.23931549 0.53300005
0.30592233 -0.23762292 0.52900004
0.30811033 -0.23817736 0.53000003
0.30855474 -0.23738511 0.528
0.30840304 -0.23614395 0.52500004
0.31059858 -0.23670325 0.52600002
0.31102321 -0.23591408 0.52400005
0.31322914 -0.23647708 0.52500004
0.3100476 -0.23298645 0.51700002
0.30862895 -0.23084669 0.51200002
0.30900088 -0.23005977 0.51000005
0.31119114 -0.23062772 0.51100004
0.31216741 -0.23029484 0.51000005
0.31191102 -0.22905977 0.50700003
0.31658655 -0.23144139 0.51200002
0.31694728 -0.23066142 0.51000005
0.32292113 -0.23395509 0.51700002
0.32203799 -0.2322737 0.51300001
0.32176507 -0.23104537 0.51000005
0.32020926 -0.22891086 0.505
0.32563609 -0.2317649 0.51100004
0.32854387 -0.23280887 0.51300001
0.32632011 -0.23022336 0.50700003
0.32341582 -0.22718228 0.5
0.33282018 -0.22881417 0.50200003
0.33445749 -0.22896552 0.50200003
0.34204236 -0.22930002 0.50100005
0.34713963 -0.23175552 0.50600004
0.3571018 -0.23742534 0.51800001
0.3567594 -0.23622556 0.51500005
0.36754054 -0.24237092 0.528
0.35603264 -0.23382775 0.509
0.36127129 -0.2363077 0.514
0.36443159 -0.23741369 0.51600003
0.36619288 -0.23760301 0.51600003
0.3743788 -0.24194276 0.52500004
0.35827106 -0.2306107 0.5
0.37258315 -0.23792724 0.51500005
-0.19935399 -0.23655833 0.53300005
-0.19713123 -0.23564079 0.53100002
-0.19492048 -0.23472412 0.52900004
-0.18617317 -0.23281348 0.52500004
-0.18472084 -0.23278801 0.52500004
-0.18396743 -0.23364982 0.52700001
-0.18285735 -0.23406865 0.528
-0.18174247 -0.23448795 0.52900004
-0.18130437 -0.23579411 0.53200001
-0.17848414 -0.23399831 0.528
-0.17702775 -0.23397587 0.528
-0.17557201 -0.23395397 0.528
-0.1744467 -0.23437561 0.52900004
-0.17364348 -0.23524062 0.53100002
-0.17153285 -0.23433411 0.52900004
-0.17039832 -0.23475701 0.53000003
-0.16894013 -0.23473741 0.53000003
-0.1674825 -0.23471825 0.53000003
-0.16539891 -0.23381388 0.528
-0.16270584 -0.23202452 0.52400005
-0.16126631 -0.23200689 0.52400005
-0.16013229 -0.2324324 0.52500004
-0.15990011 -0.23418637 0.52900004
-0.15844832 -0.23416983 0.52900004
-0.15699704 -0.2341537 0.52900004
-0.15554622 -0.23413797 0.52900004
-0.15380453 -0.23368001 0.528
-0.1526459 -0.23410764 0.52900004
-0.15062474 -0.23320802 0.52700001
-0.14974727 -0.23407882 0.52900004
-0.14829861 -0.23406498 0.52900004
-0.14740549 -0.23493634 0.53100002
-0.14650184 -0.23580801 0.53300005
-0.14613184 -0.23756468 0.537
-0.14574036 -0.23932149 0.54100001
-0.14532733 -0.24107845 0.54500002
-0.14383709 -0.24106629 0.54500002
-0.14234722 -0.24105446 0.54500002
-0.14085768 -0.24104296 0.54500002
-0.13936844 -0.24103174 0.54500002
-0.13787951 -0.24102086 0.54500002
-0.13614064 -0.24056806 0.54400003
-0.13539767 -0.24188443 0.54700005
-0.13390417 -0.24187437 0.54700005
-0.13241099 -0.24186461 0.54700005
-0.13043937 -0.24097086 0.54500002
-0.12942539 -0.24184598 0.54700005
-0.12793298 -0.24183707 0.54700005
-0.12667195 -0.24227048 0.54800004
-0.12472045 -0.24137791 0.546
-0.12323149 -0.24136978 0.546
-0.12151978 -0.24091984 0.54500002
-0.12047449 -0.24179631 0.54700005
-0.11854839 -0.24090482 0.54500002
-0.1177074 -0.24222371 0.54800004
-0.11621404 -0.24221674 0.54800004
-0.11513957 -0.24309397 0.55000001
-0.1132279 -0.24220347 0.54800004
-0.11214287 -0.24308106 0.55000001
-0.11024244 -0.24219103 0.54800004
-0.10914687 -0.24306899 0.55000001
-0.10764912 -0.24306327 0.55000001
-0.10634452 -0.24349964 0.551
-0.10465407 -0.24305238 0.55000001
-0.10315675 -0.24304719 0.55000001
-0.10147475 -0.24260031 0.54900002
-0.099980436 -0.24259551 0.54900002
-0.098306865 -0.24214898 0.54800004
-0.097345516 -0.2434701 0.551
-0.09567219 -0.24302392 0.55000001
-0.094004408 -0.24257791 0.54900002
-0.092005171 -0.24124837 0.546
-0.090851292 -0.24212824 0.54800004
-0.089849688 -0.24344999 0.551
-0.088831872 -0.2447719 0.55400002
-0.086852059 -0.24344297 0.551
-0.085198469 -0.24299784 0.55000001
-0.083398238 -0.24211107 0.54800004
-0.082057349 -0.24254984 0.54900002
-0.080417611 -0.24210511 0.54800004
-0.079215467 -0.24298587 0.55000001
-0.078002512 -0.24386677 0.55200005
-0.076501578 -0.24386418 0.55200005
-0.074864835 -0.2434199 0.551
-0.073233582 -0.24297573 0.55000001
-0.071868703 -0.24341524 0.551
-0.070626162 -0.24429661 0.55300003
-0.068997808 -0.24385275 0.55200005
-0.067252666 -0.24296722 0.55000001
-0.065398887 -0.24164008 0.54700005
-0.064145662 -0.24252176 0.54900002
-0.062539235 -0.24207827 0.54800004
-0.061383918 -0.24340187 0.551
-0.059777576 -0.24295855 0.55000001
-0.05838865 -0.24339877 0.551
-0.056994323 -0.2438391 0.55200005
-0.055494063 -0.24383774 0.55200005
-0.053993832 -0.24383645 0.55200005
-0.05220833 -0.24251001 0.54900002
-0.050716307 -0.24250883 0.54900002
-0.049313977 -0.24294946 0.55000001
-0.047993183 -0.24383187 0.55200005
-0.04649308 -0.24383084 0.55200005
-0.044993002 -0.24382989 0.55200005
-0.043492943 -0.24382901 0.55200005
-0.041916832 -0.24338643 0.551
-0.040346175 -0.24294391 0.55000001
-0.038710333 -0.24205974 0.54800004
-0.037289135 -0.24250075 0.54900002
-0.035927724 -0.24338348 0.551
-0.034555461 -0.2442663 0.55300003
-0.032993034 -0.24382402 0.55200005
-0.031436048 -0.24338172 0.551
-0.02999318 -0.24382295 0.55200005
-0.028493268 -0.24382246 0.55200005
-0.02699337 -0.24382199 0.55200005
-0.02549348 -0.24382159 0.55200005
-0.024037061 -0.24426289 0.55300003
-0.022575218 -0.24470425 0.55400002
-0.021069914 -0.24470389 0.55400002
-0.019529304 -0.24426191 0.55300003
-0.018026728 -0.24426162 0.55300003
-0.016524157 -0.24426135 0.55300003
-0.014994429 -0.24381943 0.55200005
-0.013470138 -0.24337751 0.551
-0.011973017 -0.24337733 0.551
-0.010513922 -0.24426058 0.55300003
-0.0089950757 -0.24381875 0.55200005
-0.0074816654 -0.2433769 0.551
-0.0059736925 -0.24293512 0.55000001
-0.0044792993 -0.24293506 0.55000001
-0.0029903338 -0.2433767 0.551
-0.001495935 -0.24381839 0.55200005
3.8975868e-06 -0.24426009 0.55300003
0.0015091643 -0.24470179 0.55400002
0.0030144244 -0.24470182 0.55400002
0.0045115273 -0.24426018 0.55300003
0.0059923204 -0.24337682 0.551
0.0074622477 -0.24249351 0.54900002
0.0089865467 -0.24337701 0.551
0.010483663 -0.24337716 0.551
0.012002528 -0.24381906 0.55200005
0.013502367 -0.24381924 0.55200005
0.014975031 -0.2433777 0.551
0.016412372 -0.24249454 0.54900002
0.017936684 -0.24293651 0.55000001
0.01950177 -0.24382021 0.55200005
0.021039676 -0.2442622 0.55300003
0.022460736 -0.24337912 0.551
0.023957893 -0.24337946 0.551
0.025455061 -0.24337986 0.551
0.026952233 -0.24338026 0.551
0.028449418 -0.24338073 0.551
0.029892262 -0.24293952 0.55000001
0.031386752 -0.24294002 0.55000001
0.032821462 -0.24249887 0.54900002
0.034375753 -0.24294116 0.55000001
0.035739839 -0.24205837 0.54800004
0.037228946 -0.24205905 0.54800004
0.03871806 -0.24205974 0.54800004
0.040353928 -0.24294391 0.55000001
0.04169634 -0.24206129 0.54800004
0.043106705 -0.24162044 0.54700005
0.044430126 -0.24073787 0.54500002
0.045995414 -0.24118049 0.546
0.047653124 -0.24206497 0.54800004
0.04932173 -0.24294946 0.55000001
0.050816439 -0.24295054 0.55000001
0.052120961 -0.24206828 0.54800004
0.053610291 -0.24206951 0.54800004
0.055099655 -0.24207079 0.54800004
0.05669231 -0.24251388 0.54900002
0.058396414 -0.24339877 0.551
0.060111433 -0.24428378 0.55300003
0.061168846 -0.24251838 0.54900002
0.062546968 -0.2420783 0.54800004
0.063919693 -0.24163827 0.54700005
0.065645739 -0.24252357 0.54900002
0.067138128 -0.24252547 0.54900002
0.06838055 -0.24164397 0.54700005
0.069995321 -0.24208778 0.54800004
0.070963353 -0.24032289 0.54400003
0.072309196 -0.23988335 0.54300004
0.073649637 -0.23944391 0.54200006
0.075539142 -0.2407717 0.54500002
0.077303685 -0.24165785 0.54700005
0.078935124 -0.2421023 0.54800004
0.080425337 -0.24210511 0.54800004
0.081766129 -0.24166624 0.54700005
0.083253764 -0.24166927 0.54700005
0.084276721 -0.240347 0.54400003
0.085913993 -0.24079208 0.54500002
0.087396443 -0.24079549 0.54500002
0.089205146 -0.24168272 0.54700005
0.090693213 -0.2416864 0.54700005
0.092012875 -0.2412484 0.546
0.093327187 -0.24081051 0.54500002
0.094810136 -0.24081464 0.54500002
0.096116513 -0.24037705 0.54400003
0.097776383 -0.24082337 0.54500002
0.098895431 -0.23994422 0.54300004
0.10055826 -0.24039085 0.54400003
0.10203909 -0.24039581 0.54400003
0.10390066 -0.24128474 0.546
0.10558024 -0.241732 0.54700005
0.10687394 -0.24129558 0.546
0.10836079 -0.24130125 0.546
0.10944545 -0.24042325 0.54400003
0.11113109 -0.24087128 0.54500002
0.11282236 -0.24131952 0.546
0.11430989 -0.24132605 0.546
0.11558554 -0.24089076 0.54500002
0.11685593 -0.24045572 0.54400003
0.11833858 -0.24046285 0.54400003
0.11960118 -0.24002819 0.54300004
0.12063555 -0.23915166 0.54100001
0.12211066 -0.23915948 0.54100001
0.12358599 -0.23916754 0.54100001
0.12483038 -0.23873374 0.54000002
0.12606955 -0.23830016 0.53900003
0.12777677 -0.2387511 0.54000002
0.12925032 -0.23876014 0.54000002
0.1314504 -0.24009602 0.54300004
0.1334223 -0.24099003 0.54500002
0.13491033 -0.24100006 0.54500002
0.1358981 -0.24012589 0.54300004
0.13712823 -0.23969422 0.54200006
0.13860896 -0.23970503 0.54200006
0.14008999 -0.23971619 0.54200006
0.14104894 -0.23884302 0.54000002
0.14252517 -0.23885475 0.54000002
0.14400172 -0.23886681 0.54000002
0.14574802 -0.23932154 0.54100001
0.14750019 -0.23977672 0.54200006
0.14870842 -0.2393474 0.54100001
0.15018918 -0.23936085 0.54100001
0.15223104 -0.2402596 0.54300004
0.15371807 -0.2402738 0.54300004
0.1549197 -0.2398459 0.54200006
0.15553911 -0.23853318 0.53900003
0.15701646 -0.23854844 0.53900003
0.15849426 -0.23856409 0.53900003
0.15997252 -0.23858012 0.53900003
0.16115171 -0.23815389 0.53800005
0.16262819 -0.23817073 0.53800005
0.16441017 -0.2386307 0.53900003
0.1658904 -0.23864838 0.53900003
0.16675007 -0.23778091 0.537
0.1688524 -0.2386851 0.53900003
0.17033423 -0.23870412 0.53900003
0.17213538 -0.2391665 0.54000002
0.17297806 -0.23830064 0.53800005
0.17478313 -0.23876396 0.53900003
0.17692135 -0.23967089 0.54100001
0.17775208 -0.23880626 0.53900003
0.17890495 -0.23838505 0.53800005
0.17971765 -0.23752108 0.53600001
0.18052003 -0.23665752 0.53400004
0.18165283 -0.2362375 0.53300005
0.18312436 -0.23626117 0.53300005
0.18459661 -0.23628537 0.53300005
0.18606959 -0.23631012 0.53300005
0.18789515 -0.23677881 0.53400004
0.18972701 -0.23724815 0.53500003
0.19120778 -0.23727468 0.53500003
0.19232921 -0.2368582 0.53400004
0.19380879 -0.23688582 0.53400004
0.19565491 -0.23735768 0.53500003
0.19713899 -0.23738655 0.53500003
0.19899517 -0.2378598 0.53600001
0.20010972 -0.23744611 0.53500003
0.20121963 -0.23703298 0.53400004
0.2023249 -0.23662037 0.53300005
0.20342548 -0.23620823 0.53200001
0.2049067 -0.23624073 0.53200001
0.20561299 -0.23538564 0.53000003
0.20669988 -0.23497517 0.52900004
0.20778213 -0.2345652 0.528
0.21044518 -0.23593311 0.53100002
0.21192871 -0.23596898 0.53100002
0.2134133 -0.23600554 0.53100002
0.21449432 -0.23559831 0.53000003
0.21557088 -0.23519167 0.52900004
0.21623263 -0.23434092 0.52700001
0.21812367 -0.23482487 0.528
0.2187738 -0.23397531 0.52600002
0.22025137 -0.23401599 0.52600002
0.22088711 -0.23316751 0.52400005
0.22278589 -0.23365463 0.52500004
0.22426443 -0.23369761 0.52500004
0.22574429 -0.23374139 0.52500004
0.22809108 -0.2346766 0.52700001
0.23001492 -0.23516759 0.528
0.23150735 -0.23521416 0.528
0.2330012 -0.23526157 0.528
0.23494068 -0.23575555 0.52900004
0.23554638 -0.2349133 0.52700001
0.23569249 -0.23362575 0.52400005
0.23537044 -0.23189257 0.52000004
0.2373046 -0.23238976 0.52100003
0.24107932 -0.23467262 0.52600002
0.24488416 -0.23695748 0.53100002
0.24732713 -0.23790529 0.53300005
0.24838254 -0.23751509 0.53200001
0.24943401 -0.23712572 0.53100002
0.25142673 -0.23763047 0.53200001
0.2529515 -0.23768969 0.53200001
0.25447813 -0.23774993 0.53200001
0.25648785 -0.23825829 0.53300005
0.2604416 -0.24055643 0.53800005
0.26540002 -0.24375135 0.54500002
0.2689313 -0.24560699 0.54900002
0.27150223 -0.24656974 0.551
0.27160871 -0.24529609 0.54800004
0.27169994 -0.24402283 0.54500002
0.27177605 -0.24275002 0.54200006
0.27183688 -0.24147758 0.53900003
0.27441877 -0.24244629 0.54100001
0.27650446 -0.24296851 0.54200006
0.27859825 -0.24349222 0.54300004
0.27966833 -0.24312039 0.54200006
0.27814037 -0.24050598 0.53600001
0.2797108 -0.24058427 0.53600001
0.27865982 -0.23841883 0.53100002
0.2823315 -0.24029557 0.53500003
0.28496796 -0.24127628 0.537
0.28761882 -0.24225895 0.53900003
0.28867447 -0.24189478 0.53800005
0.29080594 -0.24243125 0.53900003
0.29240367 -0.24251953 0.53900003
0.29291326 -0.24170898 0.537
0.29615605 -0.24315067 0.54000002
0.29831684 -0.24369393 0.54100001
0.30270422 -0.24604157 0.546
0.30043578 -0.24298286 0.53900003
0.29980969 -0.24127614 0.53500003
0.29747254 -0.23821603 0.528
0.29849488 -0.23786299 0.52700001
0.30065322 -0.23841424 0.528
0.30282086 -0.23896748 0.52900004
0.30327141 -0.2381669 0.52700001
0.30139932 -0.23555872 0.52100003
0.30240178 -0.2352114 0.52000004
0.30281699 -0.23441276 0.51800001
0.30498645 -0.23497327 0.51900005
0.30657485 -0.23508291 0.51900005
0.30697933 -0.23428795 0.51700002
0.30558464 -0.2321337 0.51200002
0.30356297 -0.22952543 0.50600004
0.30452302 -0.22918536 0.505
0.30729908 -0.23020884 0.50700003
0.31070057 -0.23168935 0.51000005
0.31045064 -0.23044591 0.50700003
0.30895513 -0.22829337 0.50200003
0.30990672 -0.22796035 0.50100005
0.31272122 -0.22899447 0.50300002
0.31680223 -0.23094258 0.50700003
0.31526059 -0.22879279 0.50200003
0.31937224 -0.23074661 0.50600004
0.32034191 -0.23042309 0.505
0.32322231 -0.23147078 0.50700003
0.35832331 -0.23872963 0.51700002
0.3579753 -0.23752432 0.514
0.35967433 -0.23576479 0.509
0.36141452 -0.23595403 0.509
0.37638593 -0.24377032 0.52500004
0.37027761 -0.23886259 0.514
0.36627185 -0.2353446 0.50600004
0.37094563 -0.23740935 0.51000005
-0.19601788 -0.23403047 0.52400005
-0.19456202 -0.23400036 0.52400005
-0.19200145 -0.23263127 0.52100003
-0.19165288 -0.23394193 0.52400005
-0.18947363 -0.23302078 0.52200001
-0.18550827 -0.23162724 0.51900005
-0.18478052 -0.23249339 0.52100003
-0.18228303 -0.23112896 0.51800001
-0.18189767 -0.23244223 0.52100003
-0.18080369 -0.23286353 0.52200001
-0.17970489 -0.23328529 0.523
-0.17860129 -0.2337075 0.52400005
-0.17681667 -0.23323819 0.523
-0.1753736 -0.23321544 0.523
-0.17426372 -0.23363906 0.52400005
-0.17281915 -0.23361723 0.52400005
-0.17137523 -0.23359591 0.52400005
-0.16895902 -0.23223782 0.52100003
-0.16784607 -0.23266324 0.52200001
-0.16672823 -0.23308909 0.523
-0.16592146 -0.23396096 0.52500004
-0.16416441 -0.23349631 0.52400005
-0.16210283 -0.23258661 0.52200001
-0.16036057 -0.23212302 0.52100003
-0.15923443 -0.23255092 0.52200001
-0.15840559 -0.23342466 0.52400005
-0.15726669 -0.23385322 0.52500004
-0.15582597 -0.23383674 0.52500004
-0.15467979 -0.23426601 0.52600002
-0.1526546 -0.23335961 0.52400005
-0.151218 -0.23334433 0.52400005
-0.1492101 -0.23243885 0.52200001
-0.14834604 -0.23331492 0.52400005
-0.1469107 -0.23330075 0.52400005
-0.14575334 -0.23373212 0.52500004
-0.1448658 -0.23460902 0.52700001
-0.14478414 -0.23682161 0.53200001
-0.14467548 -0.23903428 0.537
-0.14427318 -0.24080196 0.54100001
-0.14252959 -0.24034439 0.54000002
-0.14131425 -0.24077728 0.54100001
-0.13957685 -0.24032041 0.54000002
-0.13810097 -0.24030893 0.54000002
-0.13611938 -0.23940776 0.53800005
-0.1346496 -0.23939691 0.53800005
-0.13392274 -0.24072123 0.54100001
-0.13269018 -0.24115589 0.54200006
-0.13096826 -0.24070092 0.54100001
-0.12973078 -0.2411361 0.54200006
-0.12848812 -0.24157152 0.54300004
-0.12700634 -0.24156228 0.54300004
-0.12506251 -0.24066365 0.54100001
-0.1231298 -0.23976533 0.53900003
-0.1218854 -0.24020176 0.54000002
-0.12085874 -0.24108325 0.54200006
-0.11916061 -0.24063051 0.54100001
-0.1176857 -0.24062283 0.54100001
-0.116211 -0.2406154 0.54100001
-0.11494859 -0.241053 0.54200006
-0.11347154 -0.24104597 0.54200006
-0.11178803 -0.24059448 0.54100001
-0.11011019 -0.24014321 0.54000002
-0.10863914 -0.24013691 0.54000002
-0.10756519 -0.24102016 0.54200006
-0.10667622 -0.24234824 0.54500002
-0.10519204 -0.24234244 0.54500002
-0.10332744 -0.24144754 0.54300004
-0.10184902 -0.24144216 0.54300004
-0.10037071 -0.24143694 0.54300004
-0.098892555 -0.24143191 0.54300004
-0.097593941 -0.2418717 0.54400003
-0.096643351 -0.24320081 0.54700005
-0.094806775 -0.24230705 0.54500002
-0.092809968 -0.2409689 0.54200006
-0.090998113 -0.24007551 0.54000002
-0.089860424 -0.24096067 0.54200006
-0.088711955 -0.24184589 0.54400003
-0.08739233 -0.24228667 0.54500002
-0.085594498 -0.24139391 0.54300004
-0.08411745 -0.24139044 0.54300004
-0.082488298 -0.24094252 0.54200006
-0.081014127 -0.24093929 0.54200006
-0.079686821 -0.24138075 0.54300004
-0.07835412 -0.24182226 0.54400003
-0.077157378 -0.24270841 0.546
-0.075534053 -0.24226114 0.54500002
-0.073916234 -0.24181397 0.54400003
-0.072170764 -0.24092245 0.54200006
-0.070957966 -0.241809 0.54400003
-0.069734365 -0.24269567 0.546
-0.068249933 -0.24269339 0.546
-0.066398725 -0.24135779 0.54300004
-0.064803004 -0.24091129 0.54200006
-0.063446447 -0.24135379 0.54300004
-0.062198628 -0.24224085 0.54500002
-0.060605768 -0.2417946 0.54400003
-0.059018377 -0.24134842 0.54300004
-0.057330478 -0.24045782 0.54100001
-0.05596327 -0.24090077 0.54200006
-0.054490115 -0.24089928 0.54200006
-0.053212624 -0.24178678 0.54400003
-0.051639006 -0.24134098 0.54300004
-0.050163228 -0.24133968 0.54300004
-0.048687477 -0.24133845 0.54300004
-0.0472987 -0.24178173 0.54400003
-0.04590451 -0.24222505 0.54500002
-0.044423405 -0.24222404 0.54500002
-0.042942323 -0.24222302 0.54500002
-0.041385181 -0.24177764 0.54400003
-0.039906852 -0.24177672 0.54400003
-0.038428545 -0.2417759 0.54400003
-0.037086103 -0.24266396 0.546
-0.035732809 -0.24355212 0.54800004
-0.034243677 -0.24355139 0.54800004
-0.032575246 -0.24221738 0.54500002
-0.031037245 -0.24177232 0.54400003
-0.029613364 -0.24221617 0.54500002
-0.028132439 -0.24221563 0.54500002
-0.026651528 -0.24221511 0.54500002
-0.02512444 -0.24177021 0.54400003
-0.023733195 -0.2426586 0.546
-0.022249592 -0.2426582 0.546
-0.020765996 -0.24265778 0.546
-0.019211777 -0.2417686 0.54400003
-0.01773363 -0.24176829 0.54400003
-0.016255487 -0.24176797 0.54400003
-0.014804515 -0.24221215 0.54500002
-0.01329922 -0.24176748 0.54400003
-0.011821091 -0.24176726 0.54400003
-0.010361982 -0.24221151 0.54500002
-0.0088974377 -0.24265575 0.546
-0.0074003087 -0.24221122 0.54500002
-0.0058977534 -0.24132226 0.54300004
-0.0044223564 -0.24132219 0.54300004
-0.0029632428 -0.24265538 0.546
-0.0014824071 -0.24309979 0.54700005
3.8624039e-06 -0.24354419 0.54800004
0.0014873936 -0.24265535 0.546
0.0029654982 -0.24221095 0.54500002
0.0044463277 -0.24221103 0.54500002
0.0059271581 -0.2422111 0.54500002
0.0073808059 -0.24132238 0.54300004
0.0088725165 -0.24176691 0.54400003
0.010331609 -0.24132267 0.54300004
0.011850503 -0.24221167 0.54500002
0.013331349 -0.24221191 0.54500002
0.014839375 -0.24265656 0.546
0.016293049 -0.24221238 0.54500002
0.017773909 -0.24221271 0.54500002
0.019254774 -0.24221303 0.54500002
0.02077369 -0.24265778 0.546
0.022216525 -0.24221377 0.54500002
0.023784375 -0.24310304 0.54700005
0.025224505 -0.24265906 0.546
0.026659211 -0.24221511 0.54500002
0.028088491 -0.24177121 0.54400003
0.029566698 -0.24177174 0.54400003
0.031044919 -0.24177234 0.54400003
0.032523148 -0.24177298 0.54400003
0.034063894 -0.24221808 0.54500002
0.035479654 -0.24177435 0.54400003
0.036822051 -0.24088624 0.54200006
0.038436219 -0.2417759 0.54400003
0.039914526 -0.24177675 0.54400003
0.041316763 -0.2413332 0.54300004
0.042634774 -0.24044524 0.54100001
0.044186521 -0.24089071 0.54200006
0.045659471 -0.24089172 0.54200006
0.047219407 -0.24133728 0.54300004
0.048695132 -0.24133845 0.54300004
0.05017088 -0.24133968 0.54300004
0.051361311 -0.24000759 0.54000002
0.052926794 -0.24045338 0.54100001
0.054397203 -0.24045481 0.54100001
0.056177441 -0.2417897 0.54400003
0.057762049 -0.24223574 0.54500002
0.059460841 -0.24312632 0.54700005
0.060502011 -0.24135013 0.54300004
0.061749756 -0.24046296 0.54100001
0.063103527 -0.24002033 0.54000002
0.064930223 -0.24135576 0.54300004
0.066528685 -0.2418023 0.54400003
0.067757592 -0.24091548 0.54200006
0.069103405 -0.24047318 0.54100001
0.070182934 -0.23914202 0.53800005
0.07151255 -0.2386999 0.537
0.072972678 -0.2387024 0.537
0.074710101 -0.23959409 0.53900003
0.076458447 -0.24048583 0.54100001
0.077929638 -0.24048868 0.54100001
0.079694472 -0.24138075 0.54300004
0.081021786 -0.24093933 0.54200006
0.082648151 -0.2413871 0.54300004
0.083660327 -0.2400568 0.54000002
0.085286863 -0.24050482 0.54100001
0.086598195 -0.24006388 0.54000002
0.088230364 -0.24051218 0.54100001
0.089536451 -0.24007152 0.54000002
0.090837203 -0.23963097 0.53900003
0.092303857 -0.23963514 0.53900003
0.094118588 -0.24052867 0.54100001
0.095590912 -0.24053317 0.54100001
0.097422197 -0.24142708 0.54300004
0.098535948 -0.24054267 0.54100001
0.10019353 -0.24099234 0.54200006
0.10148152 -0.24055289 0.54100001
0.10314482 -0.24100292 0.54200006
0.10423461 -0.24011914 0.54000002
0.10590093 -0.24056955 0.54100001
0.10697742 -0.23968612 0.53900003
0.10824439 -0.23924755 0.53800005
0.10950604 -0.23880911 0.537
0.11158904 -0.2401498 0.54000002
0.11326983 -0.24060129 0.54100001
0.11474414 -0.24060826 0.54100001
0.11578901 -0.23972596 0.53900003
0.11725827 -0.23973337 0.53900003
0.11850746 -0.23929621 0.53800005
0.1195284 -0.23841445 0.53600001
0.12099013 -0.23842254 0.53600001
0.12268051 -0.23887566 0.537
0.12414541 -0.23888427 0.537
0.12537666 -0.23844826 0.53600001
0.12660268 -0.23801248 0.53500003
0.12830223 -0.23846672 0.53600001
0.13024962 -0.23936622 0.53800005
0.13269787 -0.24115594 0.54200006
0.13393041 -0.24072129 0.54100001
0.13515781 -0.2402869 0.54000002
0.13562095 -0.23851779 0.53600001
0.13759711 -0.23941898 0.53800005
0.13880903 -0.23898539 0.537
0.14053829 -0.23944221 0.53800005
0.14148141 -0.2385641 0.53600001
0.14294738 -0.23857649 0.53600001
0.14468309 -0.23903434 0.537
0.14642468 -0.2394926 0.53800005
0.14762229 -0.23906085 0.537
0.14937012 -0.23951986 0.53800005
0.1508434 -0.23953404 0.53800005
0.15231712 -0.23954856 0.53800005
0.15321952 -0.23867293 0.53600001
0.15440002 -0.23824286 0.53500003
0.15586677 -0.23825845 0.53500003
0.1576281 -0.23871984 0.53600001
0.15820806 -0.23740005 0.53300005
0.15937114 -0.23697135 0.53200001
0.16052924 -0.236543 0.53100002
0.16229248 -0.23700599 0.53200001
0.16406173 -0.23746954 0.53300005
0.16552642 -0.23748799 0.53300005
0.16730495 -0.23795246 0.53400004
0.16972163 -0.23930873 0.537
0.17088015 -0.23888297 0.53600001
0.17203379 -0.23845765 0.53500003
0.17318249 -0.2380327 0.53400004
0.17530751 -0.23894553 0.53600001
0.17645468 -0.23852153 0.53500003
0.177597 -0.23809794 0.53400004
0.1783991 -0.23722883 0.53200001
0.17986706 -0.237252 0.53200001
0.18133566 -0.23727569 0.53200001
0.18280496 -0.23729989 0.53200001
0.18392861 -0.23687857 0.53100002
0.1853966 -0.23690379 0.53100002
0.18686534 -0.23692963 0.53100002
0.18904419 -0.23784848 0.53300005
0.18980509 -0.2369829 0.53100002
0.19127616 -0.23701042 0.53100002
0.19238508 -0.23659213 0.53000003
0.19422077 -0.23706722 0.53100002
0.19569433 -0.23709653 0.53100002
0.19642612 -0.23623331 0.52900004
0.19752181 -0.23581712 0.528
0.19898967 -0.2358481 0.528
0.20083816 -0.23632649 0.52900004
0.20192824 -0.23591201 0.528
0.20301375 -0.2354981 0.52700001
0.20409466 -0.23508474 0.52600002
0.20517099 -0.23467191 0.52500004
0.20663632 -0.23470667 0.52500004
0.20849912 -0.23518927 0.52600002
0.20996937 -0.23522551 0.52600002
0.21184269 -0.23570976 0.52700001
0.21331793 -0.2357475 0.52700001
0.21479431 -0.23578599 0.52700001
0.21586145 -0.23537774 0.52600002
0.21733737 -0.23541768 0.52600002
0.21798252 -0.23456311 0.52400005
0.2190364 -0.23415668 0.523
0.21924272 -0.23285533 0.52000004
0.22113112 -0.23334579 0.52100003
0.22345369 -0.23428515 0.523
0.22535883 -0.23477767 0.52400005
0.22770381 -0.23571931 0.52600002
0.23006147 -0.23666212 0.528
0.23111624 -0.23626123 0.52700001
0.23260814 -0.23630945 0.52700001
0.2341015 -0.23635854 0.52700001
0.23425522 -0.23506275 0.52400005
0.23394352 -0.23331861 0.52000004
0.23361064 -0.23157458 0.51600003
0.23599 -0.23252401 0.51800001
0.23884082 -0.23392378 0.52100003
0.24309413 -0.23667237 0.52700001
0.2445986 -0.236728 0.52700001
0.24610475 -0.23678464 0.52700001
0.24573323 -0.23504458 0.523
0.2481769 -0.23600186 0.52500004
0.24920706 -0.23561166 0.52400005
0.25119025 -0.2361218 0.52500004
0.25414366 -0.23753294 0.528
0.25760049 -0.23939587 0.53200001
0.26108232 -0.24126087 0.53600001
0.26262933 -0.241327 0.53600001
0.26467124 -0.24184465 0.537
0.2672168 -0.24281418 0.53900003
0.2657868 -0.24018046 0.53300005
0.26783511 -0.2407016 0.53400004
0.26636004 -0.23806797 0.528
0.27094102 -0.24084623 0.53400004
0.27198708 -0.24046922 0.53300005
0.27354282 -0.24054448 0.53300005
0.27355254 -0.23926663 0.53000003
0.27458516 -0.23889239 0.52900004
0.27665839 -0.2394226 0.53000003
0.27664021 -0.23814686 0.52700001
0.27871841 -0.23867969 0.528
0.28239754 -0.24057078 0.53200001
0.28556913 -0.24201216 0.53500003
0.28607747 -0.24119325 0.53300005
0.28819573 -0.24173313 0.53400004
0.28923738 -0.2413691 0.53300005
0.28973028 -0.24055313 0.53100002
0.29240862 -0.24155073 0.53300005
0.29344693 -0.24119036 0.53200001
0.29614609 -0.24219181 0.53400004
0.29384202 -0.23911196 0.52700001
0.29430193 -0.23830065 0.52500004
0.29137141 -0.23476559 0.51700002
0.292362 -0.23440902 0.51600003
0.29448894 -0.23496257 0.51700002
0.29719779 -0.23597279 0.51900005
0.2993463 -0.2365305 0.52000004
0.29918945 -0.23526999 0.51700002
0.29901767 -0.23400991 0.514
0.29941592 -0.23320575 0.51200002
0.29980537 -0.23240244 0.51000005
0.30254972 -0.23342355 0.51200002
0.30174607 -0.23171054 0.50800002
0.30151847 -0.23045385 0.505
0.30438492 -0.22942841 0.50200003
0.30716389 -0.23046106 0.50400001
0.30750901 -0.2296665 0.50200003
0.31318051 -0.22970682 0.50100005
0.35087645 -0.23520625 0.50600004
0.35663351 -0.23426495 0.50200003
0.36978099 -0.24192965 0.51800001
0.3730033 -0.24306561 0.52000004
0.37912968 -0.24607746 0.52600002
0.379511 -0.24535136 0.52400005
0.37042505 -0.23853453 0.509
-0.19380383 -0.23280169 0.51800001
-0.19199267 -0.23232189 0.51700002
-0.19131599 -0.23495844 0.523
-0.18986489 -0.23492955 0.523
-0.18769409 -0.23400296 0.52100003
-0.18482019 -0.23217897 0.51700002
-0.1826787 -0.23125407 0.51500005
-0.18054906 -0.23032993 0.51300001
-0.17947873 -0.23075335 0.514
-0.17805721 -0.2307283 0.514
-0.1773237 -0.23160149 0.51600003
-0.17726164 -0.23337261 0.52000004
-0.17514937 -0.23245138 0.51800001
-0.17371957 -0.23242827 0.51800001
-0.1722904 -0.23240563 0.51800001
-0.1715216 -0.23328076 0.52000004
-0.16943403 -0.2323619 0.51800001
-0.16735807 -0.23144369 0.51600003
-0.16561532 -0.2309746 0.51500005
-0.16451631 -0.23140296 0.51600003
-0.16341236 -0.2318317 0.51700002
-0.16199017 -0.23181243 0.51700002
-0.16025792 -0.2313453 0.51600003
-0.15914734 -0.23177524 0.51700002
-0.15803178 -0.23220555 0.51800001
-0.15691124 -0.23263624 0.51900005
-0.15458734 -0.23127444 0.51600003
-0.1531709 -0.23125774 0.51600003
-0.15146086 -0.23079334 0.51500005
-0.15004811 -0.23077747 0.51500005
-0.14950161 -0.23210622 0.51800001
-0.14836739 -0.23253913 0.51900005
-0.14807746 -0.23431633 0.523
-0.14636408 -0.23385377 0.52200001
-0.1446566 -0.23339163 0.52100003
-0.14350478 -0.23382576 0.52200001
-0.14316444 -0.23560396 0.52600002
-0.14334141 -0.23827803 0.53200001
-0.14268583 -0.23960859 0.53500003
-0.14095831 -0.23914798 0.53400004
-0.13949786 -0.23913556 0.53400004
-0.13803773 -0.23912348 0.53400004
-0.13606641 -0.23821613 0.53200001
-0.13435934 -0.23775695 0.53100002
-0.1329084 -0.2377459 0.53100002
-0.13220045 -0.23907824 0.53400004
-0.13074186 -0.23906767 0.53400004
-0.12928359 -0.23905739 0.53400004
-0.12830433 -0.23994273 0.53600001
-0.12707777 -0.24038061 0.537
-0.12561211 -0.24037114 0.537
-0.12368435 -0.23946674 0.53500003
-0.12199619 -0.23901027 0.53400004
-0.12076517 -0.23944917 0.53500003
-0.11930594 -0.23944077 0.53500003
-0.11762666 -0.23898508 0.53400004
-0.11573549 -0.23808213 0.53200001
-0.11449991 -0.23852201 0.53300005
-0.11325907 -0.23896208 0.53400004
-0.11180362 -0.23895489 0.53400004
-0.11034835 -0.2389479 0.53400004
-0.10889326 -0.23894112 0.53400004
-0.10763953 -0.23938198 0.53500003
-0.10638055 -0.23982307 0.53600001
-0.10511627 -0.2402643 0.537
-0.10365369 -0.24025834 0.537
-0.10219125 -0.24025252 0.537
-0.10054139 -0.23979951 0.53600001
-0.099266849 -0.2402415 0.537
-0.097986981 -0.24068362 0.53800005
-0.096522398 -0.24067855 0.53800005
-0.095057942 -0.24067365 0.53800005
-0.09324567 -0.2397742 0.53600001
-0.091615655 -0.2393223 0.53500003
-0.090159729 -0.23931791 0.53500003
-0.089035496 -0.24020828 0.537
-0.087574348 -0.24020419 0.537
-0.086273663 -0.24064755 0.53800005
-0.084494695 -0.2397491 0.53600001
-0.083346397 -0.24064004 0.53800005
-0.081730694 -0.24018918 0.537
-0.080120534 -0.23973851 0.53600001
-0.078369141 -0.23884068 0.53400004
-0.077060811 -0.23928481 0.53500003
-0.07602977 -0.24062356 0.53800005
-0.074705273 -0.24106787 0.53900003
-0.07323952 -0.24106503 0.53900003
-0.0712412 -0.23927334 0.53500003
-0.069916919 -0.23971799 0.53600001
-0.068842687 -0.2410572 0.53900003
-0.06775222 -0.24239649 0.54200006
-0.06591177 -0.24105249 0.53900003
-0.064087689 -0.23970863 0.53600001
-0.062747367 -0.24015374 0.537
-0.061515778 -0.24104616 0.53900003
-0.060050547 -0.24104422 0.53900003
-0.05836796 -0.24014792 0.537
-0.056696303 -0.23925178 0.53500003
-0.055242069 -0.23925009 0.53500003
-0.053787868 -0.23924848 0.53500003
-0.052529335 -0.2401413 0.537
-0.051164877 -0.24058703 0.53800005
-0.049795009 -0.24103281 0.53900003
-0.048240405 -0.2405843 0.53800005
-0.04677821 -0.24058302 0.53800005
-0.045316041 -0.2405818 0.53800005
-0.043853901 -0.24058065 0.53800005
-0.042470578 -0.24102671 0.53900003
-0.04092969 -0.24057849 0.53800005
-0.039614338 -0.24147186 0.54000002
-0.038076211 -0.24102375 0.53900003
-0.036747299 -0.24191716 0.54100001
-0.035211928 -0.24146916 0.54000002
-0.033869479 -0.24236272 0.54200006
-0.032217305 -0.24102046 0.53900003
-0.030695567 -0.2405726 0.53800005
-0.029233612 -0.24057195 0.53800005
-0.02777167 -0.24057132 0.53800005
-0.026309742 -0.24057075 0.53800005
-0.024801636 -0.24012303 0.537
-0.023429381 -0.24101685 0.53900003
-0.022005513 -0.24146351 0.54000002
-0.020576222 -0.24191023 0.54100001
-0.019000242 -0.24056838 0.53800005
-0.017570963 -0.24101517 0.53900003
-0.016046615 -0.24012055 0.537
-0.014614633 -0.24056739 0.53800005
-0.013128327 -0.24011993 0.537
-0.011669192 -0.24011971 0.537
