# .PCD v0.7 - Point Cloud Data file format
VERSION 0.7
FIELDS x y z normal_x normal_y normal_z curvature
SIZE 4 4 4 4 4 4 4
TYPE F F F F F F F
COUNT 1 1 1 1 1 1 1
WIDTH 590
HEIGHT 1
VIEWPOINT 0 0 0 1 0 0 0
POINTS 590
DATA ascii
0.089612752 0.22386 0.88900006 0.55256385 0.1202429 -0.82475144 0.0065721078
0.09223906 0.22435743 0.89100003 0.55048126 0.11940613 -0.82626426 0.0070426944
0.094557315 0.22409928 0.89000005 0.5448724 0.11531618 -0.8305518 0.006173939
-0.023462396 0.21458529 0.86100006 0.96761376 -0.24779505 -0.048179295 0.020100813
-0.02126286 0.21608232 0.86700004 0.23619324 -0.92274308 -0.30456197 0.10093
-0.018790774 0.21483767 0.86200005 0.75420719 0.53082299 -0.38652101 0.063415237
-0.014647541 0.22331411 0.89600003 -0.6239571 0.13145518 -0.77032268 0.011685899
-0.012246151 0.22406283 0.89900005 -0.62150842 0.12783964 -0.77290636 0.011078904
-0.0097956853 0.22406368 0.89900005 -0.61504179 0.12526985 -0.77847993 0.010828683
-0.0073206844 0.22331659 0.89600003 -0.60810935 0.12632866 -0.78373718 0.010076217
-0.0048565762 0.22232009 0.89200002 -0.59909409 0.12574781 -0.79074258 0.0092558349
-0.0024197001 0.2218219 0.89000005 -0.58675474 0.12433386 -0.80016243 0.010062874
6.2647309e-06 0.22082503 0.88600004 -0.55662906 0.12368156 -0.82150292 0.016623389
0.0024158887 0.22032648 0.88400006 -0.54425591 0.12089201 -0.83016306 0.016786302
0.0048146034 0.21982773 0.88200003 -0.53362882 0.11580963 -0.83775192 0.012532881
0.0072187721 0.21982728 0.88200003 -0.52341938 0.11576526 -0.8441745 0.012842855
0.0096120117 0.21957739 0.88100004 -0.5009585 0.11236446 -0.85814613 0.011811495
0.011986141 0.21907812 0.87900007 -0.46040329 0.11286042 -0.88050628 0.01141648
0.014332976 0.21832941 0.87600005 -0.40744925 0.10292342 -0.90740937 0.0098244855
0.016701596 0.21807903 0.87500006 -0.37120178 0.098229371 -0.92334187 0.0088379653
0.019064721 0.21782844 0.87400001 -0.33633831 0.093418524 -0.9370963 0.0091688335
0.021422351 0.2175777 0.87300003 -0.30451515 0.086513788 -0.94857043 0.0084473398
0.02380174 0.21757598 0.87300003 -0.27813771 0.08215069 -0.95702177 0.0085186213
0.026211062 0.21782334 0.87400001 -0.25580654 0.077654801 -0.96360403 0.0084494567
0.028560342 0.21757208 0.87300003 -0.22661056 0.072168842 -0.97130805 0.006843613
0.030868659 0.2170714 0.87100005 -0.19347566 0.068552382 -0.97870713 0.006647103
0.033204168 0.21681982 0.87000006 -0.16425413 0.064790033 -0.98428804 0.0059052068
0.035615921 0.21706645 0.87100005 -0.14041702 0.063101731 -0.98807955 0.0063123791
0.037945814 0.21681452 0.87000006 -0.11389685 0.063604921 -0.99145448 0.0053753154
0.040316507 0.21681164 0.87000006 -0.09001945 0.064557396 -0.99384552 0.0057342942
0.042687096 0.21680854 0.87000006 -0.062464256 0.067888439 -0.99573559 0.0069654072
0.045057595 0.21680532 0.87000006 -0.028238943 0.07015641 -0.99713618 0.0087474929
0.047373455 0.21655269 0.86900002 0.0060033067 0.076297745 -0.99706703 0.01007077
0.049741007 0.21654916 0.86900002 0.035687059 0.080344282 -0.99612814 0.0090726484
0.052108433 0.21654543 0.86900002 0.075656556 0.085183442 -0.99348873 0.010744711
0.054413058 0.21629237 0.86800003 0.10907879 0.090103857 -0.98994094 0.010951643
0.056842931 0.21653752 0.86900002 0.15602997 0.098711193 -0.98280764 0.010596488
0.059209976 0.2165333 0.86900002 0.19686951 0.10575695 -0.97470909 0.010478451
0.061647754 0.21677811 0.87000006 0.23658286 0.11173809 -0.96516484 0.010979931
0.064164415 0.21727194 0.87200004 0.27790973 0.11544338 -0.95364517 0.012656351
0.066615514 0.21751641 0.87300003 0.316304 0.12198739 -0.94078207 0.014311755
0.069071919 0.21776073 0.87400001 0.35797042 0.1214815 -0.92579663 0.01409034
0.071451865 0.21775575 0.87400001 0.38352153 0.1252618 -0.9149977 0.012540487
0.07383164 0.21775059 0.87400001 0.41815981 0.12883081 -0.89919126 0.010946939
0.076385655 0.2182436 0.87600005 0.45203733 0.12284591 -0.88349938 0.010279723
0.079040311 0.21898554 0.87900007 0.48268577 0.11749659 -0.86787611 0.0078786295
0.081711136 0.21972732 0.88200003 0.50868493 0.11730242 -0.85292429 0.008239192
0.084207378 0.21997069 0.88300002 0.52447665 0.12067705 -0.84282935 0.0076445085
0.086708896 0.2202139 0.88400006 0.53512567 0.1252121 -0.83544141 0.0063469578
0.089417271 0.22095515 0.88700002 0.54743165 0.1285021 -0.82692546 0.0069937012
0.09224534 0.22194535 0.89100003 0.54699475 0.12751316 -0.82736766 0.007093735
0.094563723 0.22168992 0.89000005 0.54489553 0.12397829 -0.82928771 0.0068803439
-0.025001552 0.20559648 0.83400005 0.9282586 -0.36502969 0.071340255 0.017292868
-0.023355149 0.21126826 0.85700005 0.94957197 -0.31310391 0.01670506 0.020238608
-0.018726787 0.21176445 0.85900003 0.85797811 0.19309387 -0.476013 0.036013793
-0.014648645 0.22088842 0.89600003 -0.61754209 0.15174592 -0.771761 0.012461639
-0.012233452 0.22138251 0.89800006 -0.62099177 0.14544086 -0.77020532 0.011139869
-0.0097637326 0.22089027 0.89600003 -0.61197543 0.14587297 -0.77730763 0.0097357119
-0.0072967247 0.22015135 0.89300007 -0.59902382 0.14823265 -0.78689104 0.015670206
-0.0048514977 0.21965872 0.89100003 -0.58875734 0.1452921 -0.79514468 0.01477524
-0.0024144449 0.21891943 0.88800007 -0.56960213 0.13940036 -0.81001294 0.016466806
6.2581325e-06 0.2181799 0.88500005 -0.55042887 0.14081597 -0.82292092 0.022914443
0.002416071 0.2179333 0.88400006 -0.53859514 0.13647683 -0.83143812 0.018392053
0.0048095076 0.21719341 0.88100004 -0.52414769 0.1377245 -0.84041727 0.016676726
0.0072111324 0.21719298 0.88100004 -0.51810253 0.1354993 -0.84451747 0.012959954
0.0095909145 0.21669929 0.87900007 -0.48224527 0.12898193 -0.86648899 0.012339862
0.011987044 0.21669845 0.87900007 -0.44517681 0.1197862 -0.88739443 0.012115693
0.014366782 0.21645093 0.87800002 -0.41337049 0.10955841 -0.90394789 0.0098982751
0.016721942 0.21595672 0.87600005 -0.3730799 0.10349305 -0.92200899 0.010366839
0.019066155 0.2154623 0.87400001 -0.32903427 0.093925014 -0.93963528 0.0090581374
0.02139942 0.21496774 0.87200004 -0.29200613 0.092236698 -0.95195848 0.0073244702
0.023776259 0.21496604 0.87200004 -0.26930228 0.085901044 -0.95921701 0.0076523782
0.026153043 0.21496418 0.87200004 -0.24657597 0.080476865 -0.96577626 0.0074408879
0.028497044 0.21471561 0.87100005 -0.21745567 0.076426633 -0.97307348 0.0068796608
0.030835522 0.21446688 0.87000006 -0.18593867 0.071005389 -0.97999245 0.00548747
0.033168472 0.21421799 0.86900002 -0.16168398 0.071707159 -0.98423392 0.0050763697
0.035577681 0.21446194 0.87000006 -0.13394809 0.070873193 -0.98845071 0.0055511571
0.037905011 0.2142127 0.86900002 -0.11184032 0.071587786 -0.9911443 0.0043885862
0.040319495 0.21445632 0.87000006 -0.090890065 0.071821846 -0.99326766 0.0051956801
0.042690251 0.21445322 0.87000006 -0.063704573 0.075176962 -0.99513322 0.007247915
0.045112707 0.2146965 0.87100005 -0.029158007 0.077819459 -0.99654096 0.0086784987
0.047431465 0.21444659 0.87000006 0.0047239345 0.083707184 -0.99647915 0.0095122149
0.049744647 0.2141965 0.86900002 0.031835515 0.087983467 -0.99561304 0.0093573639
0.052172214 0.21443929 0.87000006 0.070755996 0.096165523 -0.99284726 0.011336233
0.054479714 0.2141889 0.86900002 0.10974367 0.10607546 -0.98828351 0.012112649
0.056847051 0.21418484 0.86900002 0.14601319 0.11489329 -0.98258829 0.011668125
0.059214264 0.21418063 0.86900002 0.18712248 0.11956524 -0.97503299 0.011220321
0.061581336 0.21417627 0.86900002 0.22771765 0.12806083 -0.96526939 0.01286147
0.064021848 0.21441822 0.87000006 0.25521031 0.12902506 -0.95823807 0.012860733
0.066467665 0.21465997 0.87100005 0.29966304 0.13355222 -0.94465119 0.014310608
0.068839736 0.21465515 0.87100005 0.3337068 0.13847737 -0.93245041 0.014311756
0.071293421 0.21489662 0.87200004 0.37194565 0.14225538 -0.91728938 0.013888475
0.073752381 0.2151379 0.87300003 0.41098934 0.14307544 -0.90034282 0.011861478
0.076391026 0.2158719 0.87600005 0.44750369 0.13515937 -0.88400924 0.010180842
0.079135768 0.21685216 0.88000005 0.48425916 0.13032198 -0.86516428 0.009137149
0.081716821 0.21733937 0.88200003 0.50781041 0.12840652 -0.85184526 0.007371034
0.084213212 0.21757999 0.88300002 0.51844549 0.13305534 -0.84469545 0.0066358745
0.086616777 0.21757409 0.88300002 0.52928942 0.13605426 -0.83746159 0.0065883584
0.089423418 0.21855363 0.88700002 0.54301733 0.13664883 -0.82852834 0.0067726597
0.092251621 0.21953298 0.89100003 0.54907614 0.13268064 -0.8251735 0.0068462011
0.09478265 0.21977299 0.89200002 0.54572815 0.13090654 -0.82767403 0.0068977848
-0.022757307 0.20358391 0.83500004 0.9306677 -0.3612124 0.058166068 0.01708715
-0.018749999 0.20968242 0.86000001 0.83217001 0.25212434 -0.49388894 0.029395647
-0.014698799 0.21919386 0.89900005 -0.61267549 0.16483988 -0.77295309 0.013340885
-0.012234374 0.21895106 0.89800006 -0.61108446 0.16047901 -0.77512729 0.01191777
-0.0097644692 0.21846423 0.89600003 -0.60625243 0.15937296 -0.7791394 0.010824201
-0.0072891032 0.2174896 0.89200002 -0.59318638 0.16150117 -0.78869975 0.015547305
-0.0048409738 0.21675859 0.88900006 -0.57646126 0.15663248 -0.80197173 0.015251194
-0.002409189 0.21602741 0.88600004 -0.55255103 0.15790623 -0.81838435 0.021196784
6.2515342e-06 0.21553984 0.88400006 -0.54488444 0.16070288 -0.82296753 0.022648741
0.0024135204 0.21529593 0.88300002 -0.52837121 0.15713781 -0.83434498 0.021487052
0.0048098709 0.21480802 0.88100004 -0.5205844 0.15805747 -0.83905286 0.016245605
0.0072034905 0.21456373 0.88000005 -0.4964124 0.15043886 -0.85495198 0.013109246
0.009591639 0.21431927 0.87900007 -0.47087565 0.13389254 -0.87197989 0.01283479
0.011974311 0.21407463 0.87800002 -0.43523762 0.12942758 -0.89096391 0.012952724
0.0143515 0.21382982 0.87700003 -0.39621159 0.11894172 -0.91042256 0.012333606
0.016723201 0.21358484 0.87600005 -0.36583772 0.11316535 -0.92377293 0.011662145
0.019089408 0.21333969 0.87500006 -0.3276701 0.10457894 -0.93898648 0.011049385
0.021401027 0.2126067 0.87200004 -0.28877342 0.097111724 -0.95245963 0.0085852947
0.023778046 0.21260498 0.87200004 -0.26589838 0.093195543 -0.95948559 0.0067551546
0.02612501 0.21235932 0.87100005 -0.23818275 0.088577673 -0.96717268 0.0068299575
0.028499177 0.21235727 0.87100005 -0.21253653 0.082631655 -0.97365308 0.0055260244
0.030837825 0.21211123 0.87000006 -0.18516591 0.079064369 -0.97952151 0.0039230143
0.033209115 0.21210884 0.87000006 -0.16328527 0.077967346 -0.98349327 0.0051739663
0.03558033 0.21210627 0.87000006 -0.13696839 0.07701686 -0.98757684 0.0045657596
0.037907828 0.21185975 0.86900002 -0.11535441 0.079443507 -0.99014252 0.0045165922
0.040276129 0.21185683 0.86900002 -0.093561962 0.081034899 -0.99231017 0.0055569368
0.042644333 0.21185376 0.86900002 -0.0671895 0.082158752 -0.9943518 0.0065850699
0.045012433 0.21185052 0.86900002 -0.039084397 0.090501025 -0.99512917 0.0094384169
0.047434952 0.21209092 0.87000006 -0.0044688038 0.093676731 -0.99559265 0.010678186
0.049748302 0.21184355 0.86900002 0.022867566 0.10323301 -0.99439424 0.0097164679
0.052176025 0.21208359 0.87000006 0.063985422 0.1066815 -0.99223232 0.010980636
0.054420993 0.21159215 0.86800003 0.098815881 0.11746144 -0.98814887 0.011905042
0.056785766 0.2115881 0.86800003 0.13269688 0.1263838 -0.9830659 0.013332828
0.059150405 0.21158388 0.86800003 0.17368232 0.13327323 -0.97574216 0.013378167
0.061585777 0.21182327 0.86900002 0.2207678 0.14324436 -0.96475005 0.014405657
0.064100049 0.21230626 0.87100005 0.26278159 0.14515866 -0.95387357 0.015031023
0.06639611 0.21205783 0.87000006 0.2916517 0.15093529 -0.94454116 0.014566268
0.06876561 0.21205299 0.87000006 0.32060537 0.15341075 -0.93470711 0.014121108
0.071216725 0.21229175 0.87100005 0.36021048 0.15421881 -0.92003536 0.014485952
0.073757604 0.21277405 0.87300003 0.4079698 0.1543352 -0.89985633 0.012456168
0.076396406 0.21349993 0.87600005 0.44805408 0.14887434 -0.88152367 0.010162854
0.07905139 0.21422559 0.87900007 0.47811446 0.14918518 -0.86553472 0.0073672482
0.081537217 0.2144637 0.88000005 0.49439192 0.14741851 -0.85664713 0.007181433
0.084028311 0.21470164 0.88100004 0.51267558 0.15064591 -0.845263 0.0076357932
0.08662276 0.21518311 0.88300002 0.52547032 0.14642465 -0.83811742 0.007071943
0.089530379 0.2163955 0.88800007 0.54289085 0.14416392 -0.82733685 0.0062610828
0.092361487 0.217364 0.89200002 0.54747838 0.1443712 -0.82427204 0.0068924078
0.094895363 0.2176013 0.89300007 0.54254985 0.14229335 -0.8278842 0.0066762408
-0.022540968 0.19939391 0.82700002 -0.90227026 0.40988815 -0.13379137 0.029679092
-0.017093629 0.21603484 0.89600003 -0.602624 0.19357954 -0.77419072 0.022857916
-0.014732611 0.21724159 0.90100002 -0.60548091 0.17634878 -0.77607608 0.014247079
-0.012248924 0.2167604 0.89900005 -0.60747737 0.17317352 -0.77523047 0.012014152
-0.0097652078 0.21603787 0.89600003 -0.60254949 0.17035729 -0.7796874 0.011141145
-0.0072896541 0.21507406 0.89200002 -0.58634299 0.17457767 -0.79102755 0.016533559
-0.0048358943 0.21411006 0.88800007 -0.56632692 0.17487408 -0.80541474 0.02230214
-0.0024093711 0.21362811 0.88600004 -0.55043185 0.17527075 -0.816275 0.021721845
6.2378622e-06 0.21266374 0.88200003 -0.52943784 0.18654059 -0.82758576 0.036739081
0.0024109695 0.21266365 0.88200003 -0.52331156 0.17893372 -0.83314329 0.020538304
0.0048047751 0.21218114 0.88000005 -0.50396204 0.17539412 -0.84573001 0.021590427
0.0071958494 0.21193959 0.87900007 -0.47631061 0.16774704 -0.86312753 0.012974661
0.0095705371 0.21145672 0.87700003 -0.44204876 0.15687667 -0.88316619 0.013416165
0.011947938 0.2112148 0.87600005 -0.40639478 0.14624856 -0.90191716 0.013355764
0.01433622 0.2112138 0.87600005 -0.38284919 0.13422738 -0.91400737 0.013587337
0.016724462 0.21121262 0.87600005 -0.35768926 0.12547076 -0.9253732 0.013421956
0.019090844 0.21097016 0.87500006 -0.31978187 0.11952324 -0.93992221 0.011589915
0.021451727 0.21072751 0.87400001 -0.29118499 0.11011973 -0.95030785 0.009367913
0.023807103 0.21048471 0.87300003 -0.26391739 0.10350491 -0.95897567 0.0079452107
0.02612697 0.21000065 0.87100005 -0.23109531 0.097684518 -0.96801484 0.0058687958
0.028501311 0.20999859 0.87100005 -0.20549707 0.091060683 -0.97441208 0.0052487156
0.030840134 0.20975527 0.87000006 -0.18230544 0.089778811 -0.97913456 0.0044247089
0.0332116 0.20975289 0.87000006 -0.16059472 0.087887332 -0.9830997 0.0048655989
0.035542078 0.20950919 0.86900002 -0.13504855 0.088392943 -0.98688835 0.0053782905
0.037910644 0.20950647 0.86900002 -0.11802974 0.089210443 -0.98899466 0.0050169546
0.04027912 0.20950358 0.86900002 -0.0963156 0.090968169 -0.99118519 0.0056201592
0.042647492 0.20950049 0.86900002 -0.072782971 0.094756916 -0.99283618 0.0081258351
0.045067567 0.20973836 0.87000006 -0.042949498 0.095570877 -0.99449563 0.010027115
0.047492966 0.20997599 0.87100005 -0.0081668235 0.10026531 -0.99492723 0.011186027
0.049809214 0.20973136 0.87000006 0.021164326 0.10952166 -0.99375904 0.011545737
0.052179847 0.2097276 0.87000006 0.055677325 0.12240139 -0.99091774 0.01258187
0.054487672 0.20948265 0.86900002 0.092092037 0.12966926 -0.98727143 0.01387194
0.056789897 0.20923752 0.86800003 0.11939991 0.13966051 -0.98297435 0.015200061
0.059222855 0.20947435 0.86900002 0.1690018 0.1464698 -0.97467172 0.01519738
0.061590232 0.20946999 0.86900002 0.2128499 0.15410541 -0.96485567 0.016298616
0.064031065 0.2097065 0.87000006 0.25281745 0.15994479 -0.95420176 0.015925694
0.066248231 0.20921974 0.86800003 0.27322412 0.1658324 -0.94754851 0.015114347
0.068691477 0.20945592 0.86900002 0.32132602 0.16956392 -0.93166399 0.01512232
0.071140021 0.20969199 0.87000006 0.35385799 0.1699992 -0.91971999 0.014767933
0.073762827 0.21040989 0.87300003 0.40567961 0.16770385 -0.89849842 0.011949032
0.076401807 0.21112764 0.87600005 0.44499531 0.16317725 -0.88054091 0.0094250757
0.079056934 0.21184519 0.87900007 0.47461367 0.1620875 -0.86514139 0.0075188121
0.081542917 0.21208057 0.88000005 0.49535808 0.1657535 -0.85272866 0.0063269814
0.084129542 0.21255676 0.88200003 0.51383394 0.16540851 -0.84179258 0.0070333988
0.086628757 0.21279183 0.88300002 0.52594769 0.16223189 -0.83490103 0.0073401839
0.089536555 0.21399067 0.88800007 0.54268891 0.15923081 -0.8247025 0.0061399713
0.092367806 0.21494831 0.89200002 0.54482996 0.15674171 -0.82376719 0.0062717255
0.095008098 0.21542387 0.89400005 0.54143322 0.15284108 -0.82673436 0.0061499313
0.097223088 0.21493538 0.89200002 0.53312033 0.15981442 -0.8308081 0.0061160373
-0.02728083 0.19881906 0.83400005 0.9370532 -0.3478635 0.030369168 0.019851254
-0.025097135 0.1995362 0.83700001 0.93419373 -0.35254088 0.054745048 0.017708339
-0.02273347 0.19882281 0.83400005 0.9370935 -0.34776852 0.030212982 0.019868365
-0.017133076 0.21408489 0.89800006 -0.59151638 0.20865776 -0.7788263 0.013629544
-0.014750077 0.21503972 0.90200007 -0.60700953 0.19577368 -0.77020258 0.014798051
-0.012222596 0.2138487 0.89700001 -0.59811735 0.19709934 -0.77679306 0.011620821
-0.009755047 0.21337272 0.89500004 -0.59260625 0.19365159 -0.78186762 0.01111281
-0.0072738612 0.21218136 0.89000005 -0.57935148 0.18819033 -0.793055 0.016552579
-0.004830814 0.2114666 0.88700002 -0.55993384 0.19345286 -0.80563635 0.02241867
-0.0024041147 0.21075165 0.88400006 -0.54305768 0.20102103 -0.81527841 0.039690383
6.2383338e-06 0.2102749 0.88200003 -0.52773011 0.20399334 -0.82455301 0.037353091
0.0024056847 0.20979802 0.88000005 -0.49999106 0.19993335 -0.84263611 0.037006654
0.0047996785 0.20955935 0.87900007 -0.48011291 0.18956141 -0.85648012 0.020915022
0.0071963929 0.20955887 0.87900007 -0.47111568 0.18268278 -0.86294669 0.01341303
0.0095821759 0.20931983 0.87800002 -0.43346354 0.17626983 -0.88376379 0.013293562
0.01194884 0.2088422 0.87600005 -0.39021158 0.16596469 -0.90564382 0.01211331
0.014320935 0.20860283 0.87500006 -0.3631801 0.15191476 -0.91925085 0.012589762
0.016706631 0.20860165 0.87500006 -0.33633962 0.14226902 -0.9309324 0.012728183
0.019114103 0.2088387 0.87600005 -0.31702083 0.12936084 -0.93955493 0.0117091
0.021477891 0.20859879 0.87500006 -0.28642333 0.1196596 -0.95060152 0.0096499417
0.02386344 0.20859708 0.87500006 -0.25998434 0.11349984 -0.95891911 0.0086413799
0.026158933 0.20788001 0.87200004 -0.22717121 0.10673647 -0.96798795 0.0065167374
0.028503446 0.20763955 0.87100005 -0.20137669 0.10047282 -0.97434729 0.0056897197
0.030806987 0.20716053 0.86900002 -0.17501926 0.10227913 -0.97923809 0.0053918944
0.033175904 0.20715815 0.86900002 -0.15866591 0.09802448 -0.98245424 0.0057392651
0.035544731 0.20715559 0.86900002 -0.13877293 0.098803423 -0.98538315 0.0064279255
0.037913468 0.20715284 0.86900002 -0.1182301 0.1011296 -0.98782307 0.006151861
0.040235754 0.20691156 0.86800003 -0.099467851 0.10739771 -0.98922795 0.0073242309
0.042650651 0.20714687 0.86900002 -0.074828155 0.10732347 -0.99140424 0.010457379
0.045019083 0.20714362 0.86900002 -0.052824967 0.11368924 -0.99211103 0.011805364
0.047441937 0.20737858 0.87000006 -0.019439105 0.11693455 -0.99294943 0.011955353
0.049755614 0.20713663 0.86900002 0.011809441 0.12619331 -0.99193537 0.012180368
0.052123692 0.20713291 0.86900002 0.045272451 0.1327101 -0.99012035 0.012167132
0.054366235 0.2066523 0.86700004 0.075542822 0.13964528 -0.98731577 0.013101824
0.056728609 0.20664825 0.86700004 0.10702509 0.15081504 -0.98275143 0.016028333
0.059227146 0.2071207 0.86900002 0.16082798 0.1630353 -0.97342378 0.017998856
0.061736446 0.20759301 0.87100005 0.21317199 0.16343994 -0.96324718 0.017949266
0.064109288 0.20758848 0.87100005 0.25216052 0.17238757 -0.95220673 0.017558422
0.066405647 0.20734546 0.87000006 0.27822864 0.17551206 -0.94434333 0.016420783
0.068696395 0.20710228 0.86900002 0.31669974 0.18325739 -0.93065464 0.015549947
0.071226865 0.20757392 0.87100005 0.35896146 0.17997234 -0.91583651 0.015749428
0.073768057 0.20804539 0.87300003 0.39553297 0.17668319 -0.90129727 0.012009022
0.076319978 0.2085167 0.87500006 0.43570483 0.1789895 -0.8821134 0.0098525388
0.078792661 0.20874953 0.87600005 0.46036455 0.18178149 -0.8689189 0.007636935
0.081455953 0.2094588 0.87900007 0.49098152 0.17779021 -0.85283512 0.0058644977
0.084040008 0.20992959 0.88100004 0.51142144 0.17802432 -0.84068745 0.0061271773
0.086634755 0.21040021 0.88300002 0.52629429 0.18078278 -0.8308621 0.0070351586
0.089441888 0.21134724 0.88700002 0.53722161 0.17476608 -0.82513618 0.0068691014
0.092270583 0.21229406 0.89100003 0.54144549 0.17403018 -0.82252675 0.0064627682
0.094908297 0.21276419 0.89300007 0.538957 0.17348127 -0.8242752 0.0059250495
0.097229689 0.21251938 0.89200002 0.52859652 0.17675517 -0.83026701 0.0062443949
-0.029414861 0.19561505 0.83000004 -0.90253145 0.40882304 -0.13528025 0.039593853
-0.026857603 0.19349603 0.82100004 0.86202663 -0.5005368 0.079831466 0.051675979
-0.024799153 0.19491208 0.82700002 -0.90254521 0.40882084 -0.1351953 0.039602693
-0.022898741 0.19797778 0.84000003 0.93068928 -0.36116856 0.058092318 0.017083632
-0.019408455 0.20976546 0.89000005 -0.5907737 0.24111243 -0.76996833 0.039353505
-0.017172528 0.21212378 0.90000004 -0.58810699 0.22644675 -0.77643543 0.01363752
-0.014751191 0.21259636 0.90200007 -0.60069036 0.21616633 -0.76970333 0.013939844
-0.012209893 0.21118321 0.89600003 -0.58832031 0.21714754 -0.77892625 0.011081959
-0.009723084 0.21024126 0.89200002 -0.587385 0.21233559 -0.78095621 0.016484782
-0.0072662379 0.20953482 0.88900006 -0.56884909 0.20814475 -0.79566729 0.02248447
-0.0048311795 0.20906387 0.88700002 -0.55819994 0.21082991 -0.80247337 0.020114422
-0.0024070162 0.20859274 0.88500005 -0.54765189 0.21489875 -0.80863833 0.02655231
6.2317336e-06 0.20765005 0.88100004 -0.52184898 0.21862456 -0.82454652 0.03761505
0.0024058665 0.20741425 0.88000005 -0.50243282 0.21385364 -0.83775169 0.025500638
0.0047945804 0.20694259 0.87800002 -0.46097159 0.20361757 -0.86373895 0.02530304
0.00718875 0.20694214 0.87800002 -0.44849253 0.19399391 -0.87247974 0.014078015
0.0095610712 0.20647012 0.87600005 -0.41145754 0.19176953 -0.89102584 0.013551709
0.011936102 0.20623361 0.87500006 -0.37283516 0.18241331 -0.90979087 0.012029996
0.014305647 0.2059969 0.87400001 -0.34679025 0.17408866 -0.92164505 0.012968245
0.016707892 0.20623143 0.87500006 -0.32523727 0.16385579 -0.93132812 0.012415059
0.019137366 0.20670147 0.87700003 -0.31258407 0.14712052 -0.93842787 0.012672627
0.021504056 0.20646425 0.87600005 -0.28395075 0.13835335 -0.94880468 0.01118011
0.023837958 0.20599116 0.87400001 -0.24752083 0.12990163 -0.96013492 0.010487198
0.026160894 0.2055179 0.87200004 -0.21683557 0.1260078 -0.96804154 0.008917558
0.028505584 0.20528017 0.87100005 -0.19522218 0.11712711 -0.97373992 0.0072966772
0.03084475 0.20504229 0.87000006 -0.17280182 0.11447735 -0.97828138 0.0066333567
0.033178378 0.20480418 0.86900002 -0.15879928 0.11305008 -0.98081726 0.0079422658
0.035506476 0.20456596 0.86800003 -0.13680796 0.11734607 -0.98362267 0.0073817191
0.037872657 0.20456322 0.86800003 -0.1194889 0.11990946 -0.98556799 0.0068028131
0.040238746 0.20456032 0.86800003 -0.1006937 0.12204465 -0.98740363 0.0071718632
0.04265381 0.20479292 0.86900002 -0.079943351 0.12223675 -0.98927611 0.0092730951
0.045022417 0.20478967 0.86900002 -0.056251679 0.12853582 -0.99010825 0.010834294
0.047445435 0.2050219 0.87000006 -0.025466032 0.12904471 -0.99131167 0.010872731
0.04981653 0.20501833 0.87000006 0.0068460917 0.13451748 -0.99088758 0.011339208
0.052127514 0.20477895 0.86900002 0.035746399 0.14167805 -0.98926723 0.011459676
0.054432917 0.2045394 0.86800003 0.072997026 0.15354621 -0.98544151 0.0144642
0.056863613 0.20477097 0.86900002 0.1180992 0.15942489 -0.98012054 0.016595483
0.059299611 0.2050024 0.87000006 0.16289607 0.16294356 -0.97309524 0.018676639
0.06174092 0.20523365 0.87100005 0.20798378 0.17532246 -0.96229148 0.018875062
0.064040296 0.20499347 0.87000006 0.24130936 0.1862745 -0.95240313 0.018094838
0.066410415 0.20498878 0.87000006 0.27960509 0.186699 -0.9417879 0.016168861
0.068859421 0.20521954 0.87100005 0.32408106 0.19158997 -0.92642581 0.015598959
0.071313724 0.20545016 0.87200004 0.35944951 0.19149722 -0.91330439 0.014631011
0.07368879 0.20544499 0.87200004 0.38975036 0.19680148 -0.89964652 0.0124866
0.076238133 0.20591086 0.87400001 0.43031564 0.19911158 -0.88044482 0.010718478
0.078798205 0.20637658 0.87600005 0.45719722 0.19387063 -0.86797744 0.0076955687
0.081461668 0.20707774 0.87900007 0.48567325 0.19052726 -0.85312414 0.0059469515
0.084045857 0.20754309 0.88100004 0.5120216 0.19134223 -0.83739001 0.0076344172
0.086640768 0.20800832 0.88300002 0.52485895 0.1945089 -0.82866722 0.0075016655
0.08924637 0.20847335 0.88500005 0.53135383 0.19342306 -0.82477313 0.0081288731
0.092069797 0.20940937 0.88900006 0.53559899 0.19464596 -0.82173395 0.0073168948
0.094808497 0.21010962 0.89200002 0.5339998 0.19501516 -0.82268661 0.0069393115
0.0973453 0.21033861 0.89300007 0.5228532 0.19665308 -0.82942873 0.0073115383
0.099552155 0.20986088 0.89100003 0.5182904 0.20201994 -0.83100116 0.0081036119
-0.029204411 0.19196858 0.82400006 0.86193699 -0.5006904 0.079835884 0.051637493
-0.019453535 0.20782019 0.89200002 -0.56092358 0.26929754 -0.78284323 0.019700695
-0.017116576 0.20898649 0.89700001 -0.57325655 0.24741644 -0.7811287 0.010701068
-0.01470324 0.20945366 0.89900005 -0.58446079 0.23906235 -0.77540612 0.0097824046
-0.01218356 0.20828976 0.89400005 -0.58453345 0.23598132 -0.77629471 0.016083766
-0.0096911155 0.20712566 0.88900006 -0.57612008 0.24027702 -0.78125066 0.021115577
-0.0072422642 0.20642732 0.88600004 -0.56471354 0.2385346 -0.79006308 0.033132765
-0.0048206509 0.20619479 0.88500005 -0.55413699 0.23620303 -0.79821068 0.026323501
-0.0024044784 0.20596206 0.88400006 -0.5414046 0.22889039 -0.80900574 0.025920277
6.2322047e-06 0.2052632 0.88100004 -0.51837105 0.22803557 -0.82419133 0.030811643
0.0024060486 0.20503011 0.88000005 -0.49710137 0.22314183 -0.83850938 0.025794242
0.0047949431 0.20456386 0.87800002 -0.46752203 0.21840067 -0.85657704 0.013282725
0.0071811047 0.20433041 0.87700003 -0.43686855 0.20767739 -0.8752234 0.013754298
0.0095508778 0.20386381 0.87500006 -0.39736685 0.20514862 -0.89443481 0.013637773
0.011923361 0.20363002 0.87400001 -0.36312214 0.20224252 -0.90952748 0.0130744
0.014306728 0.20362903 0.87400001 -0.33655331 0.18843855 -0.92261738 0.014200726
0.016709153 0.20386086 0.87500006 -0.3138904 0.17881015 -0.93246973 0.013868163
0.019116985 0.20409249 0.87600005 -0.29406145 0.16725698 -0.94103825 0.012869977
0.021481125 0.20385799 0.87500006 -0.26590276 0.16023916 -0.95058882 0.012955707
0.023785196 0.20315732 0.87200004 -0.23112206 0.15135674 -0.96107942 0.010856301
0.026132856 0.20292246 0.87100005 -0.2061931 0.14463943 -0.96776235 0.0091410009
0.02847499 0.20268746 0.87000006 -0.18643582 0.13692842 -0.97287834 0.0078626852
0.0308116 0.20245226 0.86900002 -0.16802295 0.13330206 -0.97672862 0.0082286736
0.033180859 0.20244987 0.86900002 -0.1558634 0.13407172 -0.97863752 0.0088027986
0.035509124 0.20221433 0.86800003 -0.13845144 0.13541588 -0.98106766 0.0080945361
0.037875473 0.2022116 0.86800003 -0.12375298 0.13724372 -0.98277634 0.0089964001
0.040241729 0.2022087 0.86800003 -0.10317584 0.13860348 -0.98495883 0.0087970998
0.042607881 0.20220563 0.86800003 -0.081827849 0.14120574 -0.98659265 0.008484995
0.044973928 0.20220238 0.86800003 -0.061468575 0.14373662 -0.98770511 0.0090513267
0.047339853 0.20219898 0.86800003 -0.034116108 0.14824864 -0.98836154 0.0087951478
0.049705669 0.20219542 0.86800003 -0.0081899026 0.151107 -0.98848343 0.010961089
0.052071344 0.20219168 0.86800003 0.025982225 0.15819064 -0.98706669 0.012401489
0.0544369 0.20218779 0.86800003 0.065907314 0.16276242 -0.98446155 0.013323206
0.056867756 0.20241666 0.86900002 0.10760058 0.17005186 -0.97954303 0.016021015
0.059235752 0.20241244 0.86900002 0.14698724 0.17707668 -0.97315907 0.017650299
0.061603606 0.20240806 0.86900002 0.18663454 0.18728727 -0.96441233 0.018676318
0.064044915 0.20263644 0.87000006 0.23474303 0.20079367 -0.95109284 0.01840621
0.066567868 0.20309757 0.87200004 0.2837452 0.19608778 -0.93863636 0.015844034
0.069022484 0.2033256 0.87300003 0.33011189 0.19968666 -0.92257863 0.014594482
0.071482375 0.20355348 0.87400001 0.36729148 0.1997131 -0.90841162 0.013865043
0.073778532 0.20331542 0.87300003 0.3895044 0.20666975 -0.89753771 0.01234208
0.076156288 0.20331012 0.87300003 0.41987497 0.21531656 -0.88167101 0.010655692
0.078713797 0.20377043 0.87500006 0.45350721 0.21055619 -0.86602378 0.0075597526
0.081374682 0.20446344 0.87800002 0.48082262 0.2081189 -0.85176057 0.0060642511
0.084051721 0.20515625 0.88100004 0.50541383 0.20216182 -0.83886081 0.0075375293
0.086548649 0.20538318 0.88200003 0.5153513 0.20640504 -0.83175117 0.0071429503
0.08915168 0.20584282 0.88400006 0.52343374 0.21198599 -0.82527512 0.0079882136
0.091868974 0.20653516 0.88700002 0.53322566 0.21759711 -0.81750959 0.0081490912
0.094602376 0.20722727 0.89000005 0.52657741 0.21766755 -0.82178891 0.008330455
0.09746094 0.2081521 0.89400005 0.51944172 0.21449782 -0.82714629 0.0079669515
0.099894084 0.20814539 0.89400005 0.5014677 0.22112732 -0.83644056 0.008738894
-0.029844603 0.19388054 0.84200007 0.91022795 -0.39930835 0.1097176 0.019718913
-0.025132781 0.19296359 0.83800006 0.9033742 -0.42446822 0.061170496 0.022031393
-0.019520432 0.20609401 0.89500004 -0.54089814 0.27865103 -0.79358852 0.021169158
-0.017117867 0.20655595 0.89700001 -0.56378329 0.26976934 -0.78062338 0.011407403
-0.014671635 0.20655712 0.89700001 -0.5713799 0.25487268 -0.78010571 0.0095822848
-0.012184479 0.20586734 0.89400005 -0.57815146 0.25118852 -0.77630222 0.0088476846
-0.0097027496 0.20494704 0.89000005 -0.57453936 0.25392246 -0.77809244 0.015001809
-0.0072591612 0.20448713 0.88800007 -0.5597316 0.25104666 -0.78973168 0.014203191
-0.0048264628 0.20402703 0.88600004 -0.5506326 0.24862421 -0.79686242 0.021107765
-0.0024073801 0.20379701 0.88500005 -0.53879839 0.24542177 -0.80589354 0.015821721
6.2397503e-06 0.20310627 0.88200003 -0.51570129 0.24315523 -0.82153988 0.024432439
0.0024062304 0.20264563 0.88000005 -0.49472103 0.23827124 -0.83574986 0.018000022
0.0047953059 0.2021848 0.87800002 -0.46256033 0.23194866 -0.8557089 0.014005815
0.0071734595 0.20172378 0.87600005 -0.42231014 0.22666377 -0.87765461 0.014595227
0.0095406827 0.20126258 0.87400001 -0.38403431 0.22356486 -0.89584398 0.014565242
0.011910617 0.20103152 0.87300003 -0.34933582 0.2142794 -0.91216713 0.015742538
0.014291436 0.20103051 0.87300003 -0.32348934 0.20559481 -0.92362624 0.014704576
0.01669131 0.20125961 0.87400001 -0.2967346 0.19243507 -0.93537015 0.013593711
0.019074773 0.20125827 0.87400001 -0.27277577 0.18668166 -0.94379199 0.012847947
0.021433635 0.20102648 0.87300003 -0.24728437 0.17690176 -0.95265746 0.012053298
0.023759706 0.20056425 0.87100005 -0.21501566 0.16890502 -0.96189362 0.010112097
0.026134817 0.20056236 0.87100005 -0.19494846 0.16014054 -0.96765184 0.0086959368
0.028444393 0.2000998 0.86900002 -0.17937477 0.15655622 -0.97124398 0.008839203
0.030849366 0.20032784 0.87000006 -0.16798025 0.1508594 -0.97417867 0.0089001032
0.033183336 0.20009518 0.86900002 -0.15591423 0.15240574 -0.97594225 0.0088449297
0.035552684 0.20009263 0.86900002 -0.14428294 0.1526496 -0.97769141 0.0093447985
0.037921932 0.2000899 0.86900002 -0.12357273 0.15323767 -0.98043257 0.0095954938
0.040244717 0.19985674 0.86800003 -0.10590173 0.15599461 -0.98206437 0.0095938314
0.04261104 0.19985367 0.86800003 -0.085735425 0.15714347 -0.9838472 0.008712586
0.044925433 0.19962019 0.86700004 -0.062443063 0.15932551 -0.98524934 0.0090339836
0.047288802 0.19961679 0.86700004 -0.041310374 0.16402262 -0.98559123 0.0089238351
0.04970932 0.19984347 0.86800003 -0.01323911 0.16588792 -0.98605573 0.011035274
0.052075155 0.19983971 0.86800003 0.021528037 0.17392266 -0.98452401 0.013091654
0.05450359 0.20006606 0.86900002 0.058905285 0.17470999 -0.98285633 0.014213322
0.056806449 0.19983177 0.86800003 0.088088036 0.18787873 -0.97823417 0.017045535
0.059240047 0.20005777 0.86900002 0.13851681 0.19826747 -0.97031081 0.019791748
0.061466265 0.19959298 0.86700004 0.16774589 0.20873882 -0.96347779 0.019484432
0.063975908 0.20004886 0.86900002 0.22157872 0.20632461 -0.95306504 0.018796239
0.066496298 0.2005046 0.87100005 0.27524763 0.21038993 -0.9380697 0.018056517
0.069027416 0.20096013 0.87300003 0.32210159 0.21082555 -0.92293185 0.015091245
0.071487479 0.20118529 0.87400001 0.36272189 0.21632804 -0.90644085 0.014158558
0.07378377 0.20094994 0.87300003 0.38741928 0.22476818 -0.89408362 0.013159188
0.07633616 0.201405 0.87500006 0.42741579 0.22566454 -0.8754378 0.010783381
0.078899264 0.20185986 0.87700003 0.46093118 0.22506495 -0.85842192 0.0072414367
0.081380382 0.20208439 0.87800002 0.47641334 0.22246742 -0.85061067 0.0066090203
0.084057592 0.20276912 0.88100004 0.50015122 0.2233717 -0.83663237 0.0080527337
0.086456522 0.20276317 0.88100004 0.5052526 0.22712466 -0.83254683 0.0083707832
0.089157835 0.20344754 0.88400006 0.51688528 0.23259136 -0.82385123 0.0086706905
0.091668114 0.20367146 0.88500005 0.5210318 0.23961951 -0.81921208 0.0088397358
0.094502546 0.20458563 0.88900006 0.52505016 0.24244222 -0.81580895 0.0092940992
0.0972495 0.20526946 0.89200002 0.51413345 0.24062097 -0.82326686 0.009026818
0.099789098 0.20549291 0.89300007 0.49694058 0.24683543 -0.83193892 0.0099523133
0.10210496 0.20525597 0.89200002 0.48491153 0.27181536 -0.83125037 0.01021951
-0.027256286 0.18955278 0.83300006 0.86192238 -0.50063866 0.080317527 0.051647507
-0.021840064 0.20252912 0.89000005 -0.50551921 0.32094851 -0.800901 0.02442459
-0.019565525 0.2041236 0.89700001 -0.52187669 0.29400584 -0.80075294 0.014535196
-0.017119156 0.20412499 0.89700001 -0.54496479 0.28551963 -0.78834766 0.01231079
-0.014640027 0.20367105 0.89500004 -0.55854893 0.27946135 -0.78097653 0.010304622
-0.012171768 0.20321694 0.89300007 -0.57077974 0.27598745 -0.77333134 0.0091480259
-0.0097143836 0.20276262 0.89100003 -0.5703395 0.27387473 -0.77440655 0.014101327
-0.0072678849 0.20230813 0.88900006 -0.55611295 0.26872724 -0.78646302 0.014204961
-0.0048322747 0.20185344 0.88700002 -0.5456742 0.27046496 -0.7931509 0.014816097
-0.0024048418 0.20117101 0.88400006 -0.52610248 0.26260981 -0.80885863 0.015009784
6.2331469e-06 0.20048839 0.88100004 -0.50804555 0.25814879 -0.82173532 0.020281479
0.0024064123 0.20026073 0.88000005 -0.48876584 0.24950124 -0.83597672 0.012359458
0.0048011304 0.2000329 0.87900007 -0.46240047 0.24408145 -0.85241425 0.013177764
0.0071903798 0.19980487 0.87800002 -0.42924699 0.23941253 -0.87087816 0.01503982
0.0095523205 0.19912155 0.87500006 -0.38455862 0.23357965 -0.89305943 0.015491828
0.011911516 0.19866559 0.87300003 -0.34488896 0.22674915 -0.91084379 0.016111806
0.014292513 0.19866461 0.87300003 -0.31007785 0.21613289 -0.92581761 0.015010087
0.016692568 0.19889098 0.87400001 -0.28962666 0.21027678 -0.93375587 0.013715511
0.01901073 0.19820696 0.87100005 -0.24604958 0.20269646 -0.94782579 0.011432122
0.021386139 0.19820546 0.87100005 -0.22058843 0.19467814 -0.95574117 0.0096998541
0.023679646 0.19752108 0.86800003 -0.19025454 0.19229046 -0.96271884 0.0070105628
0.02607676 0.19774678 0.86900002 -0.18331847 0.18005621 -0.96642333 0.0072796387
0.028413787 0.19751719 0.86800003 -0.17023475 0.17895117 -0.9690184 0.0082704565
0.030816207 0.19774251 0.86900002 -0.16337761 0.17237984 -0.97138709 0.0085546253
0.033185814 0.19774014 0.86900002 -0.15527859 0.16855983 -0.97338384 0.0079837088
0.035555329 0.19773757 0.86900002 -0.14394082 0.16904286 -0.97504133 0.0093156165
0.037924748 0.19773483 0.86900002 -0.12535243 0.16730785 -0.97790331 0.009223219
0.04029407 0.19773194 0.86900002 -0.10513677 0.1679866 -0.98016673 0.009018329
0.042614192 0.19750135 0.86800003 -0.08957462 0.17254108 -0.98092103 0.0090476563
0.044928748 0.19727056 0.86700004 -0.069424741 0.17541257 -0.9820441 0.0095607657
0.047292285 0.19726717 0.86700004 -0.046598241 0.18098956 -0.98238045 0.010333139
0.049655695 0.19726361 0.86700004 -0.018346008 0.18828613 -0.98194283 0.012505334
0.052078974 0.19748741 0.86800003 0.014201087 0.18870337 -0.98193145 0.014701826
0.054444849 0.19748351 0.86800003 0.046182323 0.20066509 -0.97857076 0.016703814
0.056745131 0.19725195 0.86700004 0.080709055 0.20934986 -0.97450429 0.02001535
0.059107997 0.19724773 0.86700004 0.12164952 0.21902253 -0.96810669 0.021216195
0.06139981 0.19701588 0.86600006 0.15640937 0.22799508 -0.96101743 0.022683382
0.063833274 0.19723886 0.86700004 0.20703043 0.22852831 -0.95126927 0.020950362
0.06642472 0.19791666 0.87000006 0.26276204 0.22422592 -0.93844491 0.019255579
0.068953283 0.19836678 0.87200004 0.31337774 0.22514892 -0.92255211 0.015678642
0.071492568 0.19881673 0.87400001 0.36187068 0.23221086 -0.90284425 0.014874463
0.073873527 0.19881156 0.87400001 0.38829237 0.23520505 -0.89101487 0.01279672
0.076341555 0.19903374 0.87500006 0.42805824 0.2417538 -0.87081641 0.011494848
0.078814849 0.19925573 0.87600005 0.45410115 0.24383518 -0.85693443 0.0090484219
0.081293389 0.19947757 0.87700003 0.47130686 0.24712612 -0.84663951 0.0066627963
0.083777189 0.19969925 0.87800002 0.48694 0.25516677 -0.83533192 0.0076507772
0.086364388 0.20014825 0.88000005 0.49613872 0.25322714 -0.83049524 0.0085777109
0.088962264 0.20059705 0.88200003 0.50385636 0.25756401 -0.82449347 0.0078740679
0.091674417 0.20127313 0.88500005 0.51115024 0.25487193 -0.82083237 0.0082313763
0.094296381 0.20172159 0.88700002 0.51296937 0.26579264 -0.816221 0.0092630424
0.096929021 0.20216992 0.88900006 0.50053501 0.27537432 -0.82075185 0.0091847749
0.099572323 0.20261809 0.89100003 0.49079123 0.28303817 -0.82402259 0.0095043732
0.10211182 0.20283869 0.89200002 0.47689819 0.29373091 -0.8284263 0.0090087643
0.10430495 0.20237699 0.89000005 0.46523356 0.31920192 -0.8256318 0.010761715
-0.034359459 0.18886192 0.84000003 0.86184067 -0.50087494 0.079718001 0.05149531
-0.032107025 0.18908922 0.84100002 0.87958086 -0.45742941 0.13075116 0.03396235
-0.029813608 0.18909155 0.84100002 -0.88558495 0.44363987 -0.13756068 0.026244309
-0.022062574 0.20214042 0.89900005 -0.47645408 0.32374707 -0.81742239 0.018823247
-0.019654248 0.20259167 0.90100002 -0.49986559 0.30152795 -0.81192076 0.015131033
-0.017158616 0.20214336 0.89900005 -0.53416157 0.29847938 -0.79093713 0.013470839
-0.014657487 0.20147 0.89600003 -0.54550606 0.29847127 -0.78315896 0.011735664
-0.012172684 0.20079644 0.89300007 -0.5591951 0.29538262 -0.77462882 0.010599634
-0.0097260186 0.20057239 0.89200002 -0.56626505 0.2885108 -0.77207869 0.0092788823
-0.0072766081 0.20012332 0.89000005 -0.55770487 0.28991708 -0.77776182 0.0091702761
-0.0048326398 0.19944921 0.88700002 -0.53880244 0.29001182 -0.79093933 0.010450982
-0.0024023023 0.19855005 0.88300002 -0.5164274 0.28932831 -0.8059727 0.0091538839
6.2265412e-06 0.19787556 0.88000005 -0.49559698 0.281133 -0.82179558 0.015719095
0.002403859 0.19765061 0.87900007 -0.47125226 0.27197903 -0.83901644 0.011390666
0.0047960295 0.19742548 0.87800002 -0.43926033 0.26506203 -0.85836613 0.013866257
0.0071909213 0.19742502 0.87800002 -0.41852972 0.25589123 -0.87140834 0.016101947
0.0095530404 0.19674982 0.87500006 -0.36982238 0.25158259 -0.89439225 0.016724993
0.011926058 0.19652416 0.87400001 -0.33735025 0.24812464 -0.90809083 0.017745614
0.014293588 0.19629832 0.87300003 -0.29939765 0.2406752 -0.92327493 0.015521327
0.016674723 0.19629717 0.87300003 -0.27968684 0.22593988 -0.93312728 0.013249192
0.018990332 0.19562127 0.87000006 -0.23406477 0.22177179 -0.94658911 0.012476876
0.021363189 0.19561976 0.87000006 -0.20793587 0.21346895 -0.95456463 0.0099896239
0.023681421 0.19516836 0.86800003 -0.18475428 0.20973028 -0.96014535 0.0092399856
0.026078712 0.19539136 0.86900002 -0.17329302 0.20209862 -0.96391165 0.0088572558
0.028448647 0.1953893 0.86900002 -0.16560444 0.19644572 -0.96642864 0.0090762377
0.030853974 0.19561195 0.87000006 -0.16224049 0.18820783 -0.96863604 0.0084815798
0.033188283 0.19538471 0.86900002 -0.15522121 0.18762855 -0.96989793 0.007924905
0.035557974 0.19538216 0.86900002 -0.14175318 0.18643826 -0.97218663 0.0078903679
0.037927564 0.19537942 0.86900002 -0.12516378 0.18534878 -0.97466904 0.0081258025
0.040297054 0.19537653 0.86900002 -0.11176935 0.18755791 -0.97587377 0.0084610246
0.042568244 0.1949238 0.86700004 -0.09766034 0.19185595 -0.97655201 0.0089323763
0.044932064 0.1949206 0.86700004 -0.076215424 0.19645762 -0.97754568 0.010771086
0.04735031 0.19514202 0.86800003 -0.049189009 0.19820334 -0.97892588 0.011351066
0.049831171 0.1955881 0.87000006 -0.01256488 0.19679041 -0.9803651 0.014146531
0.052082781 0.19513474 0.86800003 0.0095643159 0.20614658 -0.97847438 0.01580427
0.054448821 0.19513085 0.86800003 0.04226191 0.21129313 -0.97650862 0.018580168
0.056683805 0.19467719 0.86600006 0.071872629 0.23173422 -0.97012037 0.022275345
0.059044104 0.19467302 0.86600006 0.10737702 0.23752819 -0.96542764 0.023686493
0.06133334 0.19444387 0.86500007 0.1479736 0.2456394 -0.95800066 0.024878569
0.063837864 0.19488892 0.86700004 0.20057553 0.24647063 -0.94816756 0.023229582
0.066353135 0.19533382 0.86900002 0.24896093 0.24254794 -0.9376508 0.020736244
0.068800047 0.19555376 0.87000006 0.29522955 0.24913053 -0.92237383 0.017354934
0.071252242 0.19577354 0.87100005 0.3342652 0.2516785 -0.90825367 0.014781216
0.073709704 0.19599316 0.87200004 0.37584001 0.25807279 -0.89002395 0.013040021
0.076259688 0.19643739 0.87400001 0.40701658 0.2607587 -0.87540984 0.010855341
0.078820385 0.19688144 0.87600005 0.44482076 0.26460713 -0.85563862 0.0087352945
0.081299074 0.19710056 0.87700003 0.46653751 0.2691519 -0.8425557 0.0078394841
0.083783023 0.19731955 0.87800002 0.47850627 0.27632824 -0.8334713 0.0079230862
0.086272225 0.19753839 0.87900007 0.48677793 0.28341281 -0.82627141 0.0086983582
0.08886753 0.19798179 0.88100004 0.49637526 0.28555343 -0.8197993 0.0091727795
0.091577105 0.19864973 0.88400006 0.50108904 0.28048712 -0.81867993 0.0089043006
0.094196498 0.19909281 0.88600004 0.49858573 0.29600999 -0.81473333 0.0091180941
0.096826561 0.19953573 0.88800007 0.49102801 0.30692089 -0.81528586 0.0095802741
0.099355534 0.19975379 0.88900006 0.47963351 0.31738967 -0.81805593 0.0094196172
0.10200419 0.20019637 0.89100003 0.46303731 0.32640371 -0.82404917 0.010442752
0.10466354 0.20063885 0.89300007 0.4435111 0.33951041 -0.82947612 0.011042556
0.10721358 0.20085648 0.89400005 0.42560047 0.35801318 -0.83107805 0.010945261
-0.024434486 0.19903509 0.89600003 -0.44385922 0.37382767 -0.81439662 0.019125709
-0.022064228 0.19970326 0.89900005 -0.45840424 0.34076807 -0.82081825 0.017757686
-0.019612093 0.19970484 0.89900005 -0.491579 0.33183259 -0.80513179 0.014672396
-0.017121727 0.19926192 0.89700001 -0.5147202 0.32180372 -0.79467314 0.013240921
-0.014642227 0.19881882 0.89500004 -0.5359779 0.31661534 -0.78261256 0.012159639
-0.012146334 0.19793124 0.89100003 -0.5483793 0.32725966 -0.76953322 0.012003572
-0.0096940389 0.19748779 0.88900006 -0.55290878 0.31838143 -0.77001631 0.0099153677
-0.0072444496 0.19682197 0.88600004 -0.53691071 0.31261298 -0.78358161 0.009621162
-0.0048221056 0.19660027 0.88500005 -0.52502006 0.30710095 -0.79375243 0.0090906015
-0.0023997626 0.19593412 0.88200003 -0.50293678 0.30586535 -0.80839401 0.010684394
6.2199338e-06 0.19526777 0.87900007 -0.47831291 0.2948603 -0.8272087 0.012144435
0.0023985698 0.19482337 0.87700003 -0.44355452 0.29074013 -0.84777921 0.014181214
0.0047909273 0.1948231 0.87700003 -0.42929587 0.27638158 -0.85983616 0.015793962
0.0071832719 0.19482265 0.87700003 -0.40310979 0.269853 -0.87446094 0.016856119
0.0095428396 0.19415559 0.87400001 -0.35679641 0.26654285 -0.8953498 0.018232824
0.011913309 0.19393264 0.87300003 -0.32340503 0.25592959 -0.91099358 0.016706577
0.014261915 0.19348736 0.87100005 -0.28268504 0.25811586 -0.92383188 0.015085781
0.01663777 0.1934862 0.87100005 -0.2515913 0.2438339 -0.93661457 0.013236472
0.018991755 0.19326273 0.87000006 -0.22384915 0.23937497 -0.9447704 0.012684646
0.021364789 0.19326124 0.87000006 -0.20056647 0.23064932 -0.95214182 0.011750455
0.023710476 0.19303739 0.86900002 -0.18231983 0.2241035 -0.95735943 0.0098452186
0.026080659 0.19303553 0.86900002 -0.1698828 0.22330648 -0.95983016 0.010417008
0.028483512 0.19325563 0.87000006 -0.16349347 0.21468659 -0.96290165 0.0094408207
0.030856272 0.19325343 0.87000006 -0.15533482 0.21014206 -0.96525198 0.0091048125
0.03319075 0.1930289 0.86900002 -0.14630204 0.20905505 -0.96689802 0.0072905654
0.035560612 0.19302636 0.86900002 -0.13850103 0.20550375 -0.96880633 0.0081366431
0.037930373 0.19302364 0.86900002 -0.12807395 0.20556349 -0.97022718 0.0071395324
0.040300034 0.19302075 0.86900002 -0.11518013 0.20470506 -0.97202337 0.0076351608
0.042571381 0.19257346 0.86700004 -0.099560283 0.21710813 -0.97105706 0.0090613523
0.044935368 0.19257025 0.86700004 -0.078235194 0.21896803 -0.97259051 0.011413006
0.047299229 0.19256684 0.86700004 -0.052524332 0.22139077 -0.97376966 0.013777023
0.04966297 0.1925633 0.86700004 -0.02583871 0.22625376 -0.97372562 0.016103381
0.052026577 0.19255958 0.86700004 0.0016665854 0.23094566 -0.97296518 0.018187651
0.05432732 0.19233361 0.86600006 0.032986518 0.24500297 -0.968961 0.021539275
0.056622464 0.19210751 0.86500007 0.067639686 0.2510398 -0.96561062 0.024338784
0.058912005 0.19188121 0.86400002 0.093610257 0.26379696 -0.96002513 0.024946524
0.061337765 0.19209898 0.86500007 0.13633232 0.2673443 -0.95390803 0.026830602
0.063768819 0.19231655 0.86600006 0.18729372 0.26654026 -0.94545084 0.025114931
0.066281527 0.19275603 0.86800003 0.23783514 0.26033121 -0.93576813 0.022722578
0.068725869 0.19297326 0.86900002 0.28221369 0.26528406 -0.92194349 0.018902397
0.071093678 0.19296829 0.86900002 0.31771567 0.27745226 -0.90668458 0.015824707
0.073545851 0.19318523 0.87000006 0.35417989 0.28478304 -0.89076102 0.015279899
0.076003276 0.19340199 0.87100005 0.38761014 0.28745094 -0.87585986 0.012707566
0.078645945 0.19406268 0.87400001 0.42095309 0.27998945 -0.86278868 0.0085231289
0.081212051 0.19450118 0.87600005 0.45464158 0.28566647 -0.8436206 0.0075826361
0.083693422 0.19471745 0.87700003 0.46868476 0.29512921 -0.83260638 0.0084272521
0.086180031 0.19493358 0.87800002 0.47718969 0.30181015 -0.82534885 0.0091396328
0.088671893 0.19514957 0.87900007 0.48326468 0.30760515 -0.819655 0.0089659747
0.091376185 0.19580941 0.88200003 0.48550156 0.31482092 -0.81558323 0.0095714591
0.093990281 0.1962471 0.88400006 0.48417085 0.32892984 -0.81079203 0.0096616521
0.096615039 0.1966846 0.88600004 0.47637564 0.34131956 -0.81028837 0.0097476756
0.099138685 0.19689995 0.88700002 0.46671033 0.35665575 -0.80930722 0.009966095
0.10189655 0.19755915 0.89000005 0.4520039 0.36183953 -0.81533098 0.010773759
0.1045533 0.1979962 0.89200002 0.43430072 0.36862865 -0.82188547 0.011506587
0.10734061 0.19865502 0.89500004 0.41738829 0.38042936 -0.82526398 0.01129871
0.10965342 0.19842592 0.89400005 0.39654225 0.3990657 -0.82674116 0.011091867
-0.029226065 0.19594346 0.89300007 -0.39127862 0.43262023 -0.8122443 0.01971586
-0.027090319 0.19813977 0.90300006 -0.40326369 0.37594372 -0.83429289 0.022180326
-0.024572676 0.19770284 0.90100002 -0.42253044 0.37066177 -0.82709002 0.020441201
-0.022065874 0.19726571 0.89900005 -0.44422662 0.36334339 -0.81892878 0.01833888
-0.019548109 0.19660901 0.89600003 -0.47648522 0.36959371 -0.79772323 0.016961167
-0.017065743 0.19617149 0.89400005 -0.50494111 0.36000666 -0.78449327 0.01476839
-0.014594242 0.19573382 0.89200002 -0.52359325 0.35395226 -0.7749632 0.013734125
-0.012119979 0.19507651 0.88900006 -0.53747809 0.3437973 -0.77001351 0.012490191
-0.0096729556 0.19463848 0.88700002 -0.53681463 0.33727381 -0.77335411 0.011118329
-0.007228639 0.19398081 0.88400006 -0.52274352 0.33993343 -0.78178293 0.010611801
-0.0048061209 0.19354239 0.88200003 -0.50384873 0.33995667 -0.79408181 0.011360065
-0.0023945007 0.19310378 0.88000005 -0.48471385 0.33536097 -0.80782771 0.012523564
6.2133236e-06 0.19266498 0.87800002 -0.45817924 0.32402918 -0.82769376 0.01383579
0.0023960148 0.19222602 0.87600005 -0.42674235 0.31508964 -0.84770834 0.015434471
0.0047748978 0.1917869 0.87400001 -0.39977053 0.31247422 -0.86170959 0.017908217
0.0071510454 0.19156702 0.87300003 -0.36827832 0.30772406 -0.87731236 0.0195415
