# .PCD v0.7 - Point Cloud Data file format
VERSION 0.7
FIELDS x y z
SIZE 4 4 4
TYPE F F F
COUNT 1 1 1
WIDTH 1414
HEIGHT 1
VIEWPOINT 0 0 0 1 0 0 0
POINTS 1414
DATA ascii
0.29146725 -0.25233096 0.58200002
0.29163989 -0.25110078 0.57900006
0.29281068 -0.25073868 0.57800001
0.29295903 -0.24950971 0.57500005
0.29411715 -0.24914932 0.574
0.29475659 -0.24835578 0.57200003
0.29486862 -0.24712865 0.56900001
0.29496568 -0.24590203 0.56600004
0.297144 -0.24641424 0.56700003
0.30038473 -0.24779753 0.57000005
0.30523548 -0.2504876 0.57600003
0.30692697 -0.25057068 0.57600003
0.30701381 -0.24934962 0.57300001
0.30546957 -0.24682319 0.56700003
0.30660132 -0.24647367 0.56600004
0.30718529 -0.24568965 0.56400001
0.31214133 -0.24839269 0.57000005
0.31218064 -0.24717563 0.56700003
0.31441951 -0.24770351 0.56800002
0.31388465 -0.24605191 0.56400001
0.31780523 -0.24789196 0.56800002
0.3189404 -0.24755193 0.56700003
0.32063833 -0.24764988 0.56700003
0.32006556 -0.24600162 0.56300002
0.32061517 -0.24522784 0.56100005
0.32000709 -0.24358031 0.55700004
0.32053339 -0.24280795 0.55500001
0.32105112 -0.24203651 0.55300003
0.32097664 -0.2408281 0.55000001
0.31971431 -0.23874409 0.54500002
0.32019418 -0.23797461 0.54300004
0.32066551 -0.23720603 0.54100001
0.32351148 -0.23819305 0.54300004
0.32517582 -0.23830487 0.54300004
0.32564011 -0.23754032 0.54100001
0.3254911 -0.23633744 0.53800005
0.32350317 -0.23381656 0.53200001
0.32576051 -0.23437297 0.53300005
0.32495666 -0.23273194 0.52900004
0.32907116 -0.23461235 0.53300005
0.33259431 -0.23605606 0.53600001
0.33551687 -0.23706248 0.53800005
0.33406895 -0.23498571 0.53300005
0.33574364 -0.23511408 0.53300005
0.33995506 -0.23700988 0.537
0.34292394 -0.23802653 0.53900003
0.34015566 -0.2350695 0.53200001
0.34377342 -0.23653218 0.53500003
0.34612358 -0.23711377 0.53600001
0.34783611 -0.23725544 0.53600001
0.34759724 -0.23607057 0.53300005
0.35389787 -0.23931809 0.54000002
0.36420041 -0.24523254 0.55300003
0.36466488 -0.24450044 0.551
0.33785427 -0.22556464 0.50800002
0.36423519 -0.2421515 0.54500002
0.36131316 -0.23919961 0.53800005
0.36509964 -0.24069507 0.54100001
0.35806134 -0.23507145 0.528
0.35843921 -0.23434308 0.52600002
0.36839622 -0.2398576 0.53800005
0.37155807 -0.24092072 0.54000002
0.37957937 -0.2451131 0.54900002
0.37933022 -0.24395241 0.546
0.37348273 -0.23921545 0.53500003
0.37177661 -0.23715863 0.53000003
-0.17435998 -0.23834413 0.55200005
-0.17221797 -0.23746321 0.55000001
-0.17101859 -0.23787801 0.551
-0.17042954 -0.2391566 0.55400002
-0.16921476 -0.23957206 0.55500001
-0.16708851 -0.238693 0.55300003
-0.16617133 -0.23954086 0.55500001
-0.16465034 -0.23952588 0.55500001
-0.16312982 -0.2395113 0.55500001
-0.16190094 -0.23992862 0.55600005
-0.16037853 -0.23991475 0.55600005
-0.15857084 -0.23946978 0.55500001
-0.15676904 -0.23902524 0.55400002
-0.15609407 -0.24030679 0.55700004
-0.15540308 -0.24158858 0.56
-0.15442127 -0.2424392 0.56200004
-0.15234075 -0.24156463 0.56
-0.15081017 -0.24155316 0.56
-0.14874674 -0.24067935 0.55800003
-0.14695844 -0.24023727 0.55700004
-0.14595924 -0.24108939 0.55900002
-0.14520784 -0.242373 0.56200004
-0.14392905 -0.24279432 0.56300002
-0.14163342 -0.24149095 0.56
-0.13985486 -0.24105044 0.55900002
-0.13857694 -0.24147262 0.56
-0.13704911 -0.24146387 0.56
-0.13673155 -0.24361126 0.565
-0.13447277 -0.24230951 0.56200004
-0.1331768 -0.24273267 0.56300002
-0.13164179 -0.24272494 0.56300002
-0.13056922 -0.24357969 0.565
-0.12902921 -0.24357241 0.565
-0.1268125 -0.24227215 0.56200004
-0.1252811 -0.24226539 0.56200004
-0.1237499 -0.24225888 0.56200004
-0.12308879 -0.24397682 0.56600004
-0.12176184 -0.24440175 0.56700003
-0.12000556 -0.24396479 0.56600004
-0.11846421 -0.24395908 0.56600004
-0.11712961 -0.24438462 0.56700003
-0.11619743 -0.24567232 0.57000005
-0.11444454 -0.24523619 0.56900001
-0.11289568 -0.24523126 0.56900001
-0.11095557 -0.24436456 0.56700003
-0.10960539 -0.24479097 0.56800002
-0.10805967 -0.24478659 0.56800002
-0.10632654 -0.24435143 0.56700003
-0.104599 -0.24391647 0.56600004
-0.10342323 -0.24477443 0.56800002
-0.10205736 -0.24520166 0.56900001
-0.10068615 -0.24562901 0.57000005
-0.098787837 -0.24476372 0.56800002
-0.09758532 -0.24562229 0.57000005
-0.096372008 -0.24648094 0.57200003
-0.095147923 -0.24733974 0.574
-0.093260869 -0.24647503 0.57200003
-0.091224454 -0.24517958 0.56900001
-0.089519642 -0.24474604 0.56800002
-0.088285007 -0.24560535 0.57000005
-0.086887389 -0.24603382 0.57100004
-0.085484415 -0.24646242 0.57200003
-0.083782621 -0.24602936 0.57100004
-0.08208631 -0.24559642 0.57000005
-0.080678083 -0.24602532 0.57100004
-0.079403043 -0.24688517 0.57300001
-0.077845484 -0.24688339 0.57300001
-0.076154828 -0.24645084 0.57200003
-0.074600078 -0.24644925 0.57200003
-0.073173083 -0.24687859 0.57300001
-0.071865678 -0.24773885 0.57500005
-0.07018064 -0.24730663 0.574
-0.068501078 -0.24687451 0.57300001
-0.067060649 -0.24730416 0.574
-0.065500699 -0.24730301 0.574
-0.063829392 -0.2468711 0.57300001
-0.062272225 -0.2468701 0.57300001
-0.060397204 -0.24557664 0.57000005
-0.05895149 -0.24600661 0.57100004
-0.057399828 -0.24600576 0.57100004
-0.056141622 -0.24729748 0.574
-0.054772042 -0.24815843 0.57600003
-0.053114489 -0.24772689 0.57500005
-0.051372737 -0.2468646 0.57300001
-0.049641866 -0.24600235 0.57100004
-0.048427217 -0.24772514 0.57500005
-0.046946317 -0.24815543 0.57600003
-0.045302436 -0.24772413 0.57500005
-0.043587919 -0.24686204 0.57300001
-0.041957647 -0.24643081 0.57200003
-0.040685989 -0.24815373 0.57600003
-0.038985092 -0.24729171 0.574
-0.037425477 -0.24729139 0.574
-0.035803393 -0.24686033 0.57300001
-0.034246508 -0.24686003 0.57300001
-0.032632586 -0.24642898 0.57200003
-0.031024097 -0.24599792 0.57100004
-0.029575897 -0.24685934 0.57300001
-0.028067939 -0.24728999 0.574
-0.02660073 -0.24815147 0.57600003
-0.025035728 -0.24815132 0.57600003
-0.023552224 -0.24901284 0.57800001
-0.021943761 -0.24858187 0.57700002
-0.020411367 -0.24901259 0.57800001
-0.018743148 -0.24772003 0.57500005
-0.017210755 -0.24815077 0.57600003
-0.015591442 -0.24728905 0.574
-0.014105226 -0.24858142 0.57700002
-0.012537524 -0.24858136 0.57700002
-0.011007848 -0.24944298 0.57900006
-0.0094021223 -0.24858129 0.57700002
-0.0078208465 -0.24815044 0.57600003
-0.006245004 -0.2477196 0.57500005
-0.0046990267 -0.2485812 0.57700002
-0.0031313288 -0.2485812 0.57700002
-0.0015582113 -0.24771957 0.57500005
4.0384066e-06 -0.2468579 0.57300001
0.0015663162 -0.24771957 0.57500005
0.0031394621 -0.2485812 0.57700002
0.004699002 -0.24815039 0.57600003
0.0062204832 -0.24642713 0.57200003
0.007774597 -0.24642716 0.57200003
0.0093450211 -0.24685802 0.57300001
0.010939904 -0.24771972 0.57500005
0.012480428 -0.24728891 0.574
0.014113359 -0.24858142 0.57700002
0.015708242 -0.24901232 0.57800001
0.017278662 -0.2490124 0.57800001
0.018751254 -0.24772003 0.57500005
0.020278201 -0.24728931 0.574
0.021875806 -0.24772024 0.57500005
0.023478849 -0.24815121 0.57600003
0.025130805 -0.24901295 0.57800001
0.026747439 -0.24944393 0.57900006
0.028271681 -0.24901327 0.57800001
0.02973887 -0.24815185 0.57600003
0.031195188 -0.24729037 0.574
0.032754775 -0.24729061 0.574
0.034254584 -0.24686003 0.57300001
0.035811473 -0.24686033 0.57300001
0.037303146 -0.2464298 0.57200003
0.038993184 -0.24729171 0.574
0.040552806 -0.24729207 0.574
0.04211244 -0.24729246 0.574
0.043672085 -0.24729286 0.574
0.044995334 -0.24600084 0.57100004
0.046383813 -0.24513964 0.56900001
0.048014145 -0.24557102 0.57000005
0.049736861 -0.24643317 0.57200003
0.051380809 -0.2468646 0.57300001
0.05284543 -0.24643439 0.57200003
0.054399744 -0.24643509 0.57200003
0.056051891 -0.24686666 0.57300001
0.057608955 -0.2468674 0.57300001
0.059269302 -0.24729909 0.574
0.060829129 -0.24729997 0.574
0.062497687 -0.24773179 0.57500005
0.06394887 -0.24730194 0.574
0.065394662 -0.24687217 0.57300001
0.066951893 -0.24687332 0.57300001
0.068270028 -0.24601284 0.57100004
0.069699615 -0.24558327 0.57000005
0.071123794 -0.24515377 0.56900001
0.072542593 -0.24472433 0.56800002
0.07408642 -0.24472584 0.56800002
0.075763449 -0.24515828 0.56900001
0.077445954 -0.24559082 0.57000005
0.078995369 -0.24559259 0.57000005
0.080262214 -0.24473272 0.56800002
0.081806287 -0.24473467 0.56800002
0.083497167 -0.2451676 0.56900001
0.085044093 -0.24516977 0.56900001
0.08659108 -0.24517207 0.56900001
0.087983236 -0.24474356 0.56800002
0.089370035 -0.24431519 0.56700003
0.091072127 -0.2447487 0.56800002
0.092616707 -0.24475144 0.56800002
0.094161354 -0.24475431 0.56800002
0.09570609 -0.24475732 0.56800002
0.097250916 -0.24476044 0.56800002
0.098969795 -0.24519466 0.56900001
0.10069419 -0.24562903 0.57000005
0.10206538 -0.24520166 0.56900001
0.10379545 -0.24563637 0.57000005
0.10516143 -0.24520929 0.56900001
0.10689717 -0.24564432 0.57000005
0.10825793 -0.24521755 0.56900001
0.10961342 -0.24479102 0.56800002
0.11115928 -0.24479555 0.56800002
0.11250686 -0.24436933 0.56700003
0.1140503 -0.24437425 0.56700003
0.11518612 -0.24351731 0.565
0.11693103 -0.24395365 0.56600004
0.11847221 -0.24395913 0.56600004
0.12022559 -0.24439584 0.56700003
0.12155508 -0.24397072 0.56600004
0.12309679 -0.24397685 0.56600004
0.12441847 -0.24355209 0.565
0.1261808 -0.24398975 0.56600004
0.12749742 -0.24356544 0.565
0.12880883 -0.24314138 0.56400001
0.13034609 -0.2431486 0.56400001
0.13164978 -0.24272498 0.56300002
0.13389446 -0.24402615 0.56600004
0.13495931 -0.24317186 0.56400001
0.13722359 -0.24447365 0.56700003
0.13852552 -0.24405105 0.56600004
0.13982223 -0.24362868 0.565
0.14086358 -0.24277534 0.56300002
0.14240016 -0.24278472 0.56300002
0.1434257 -0.24193187 0.56100005
0.14469899 -0.2415105 0.56
0.14544494 -0.24022686 0.55700004
0.14670248 -0.23980601 0.55600005
0.14848807 -0.2402481 0.55700004
0.15054877 -0.24112187 0.55900002
0.15234871 -0.24156468 0.56
0.15360489 -0.24114513 0.55900002
0.15485597 -0.24072583 0.55800003
0.15666246 -0.24116972 0.55900002
0.15762588 -0.24031965 0.55700004
0.15915018 -0.2403328 0.55700004
0.16009796 -0.23948331 0.55500001
0.16220002 -0.2403602 0.55700004
0.1637256 -0.24037446 0.55700004
0.16554829 -0.24082071 0.55800003
0.1670775 -0.24083577 0.55800003
0.16890934 -0.24128287 0.55900002
0.17074716 -0.24173045 0.56
0.17166802 -0.24088345 0.55800003
0.1728888 -0.24046843 0.55700004
0.17410462 -0.24005382 0.55600005
0.17594726 -0.24050313 0.55700004
0.17747732 -0.24052115 0.55700004
0.17836514 -0.23967591 0.55500001
0.17859431 -0.23796721 0.551
0.18010959 -0.23798639 0.551
0.18195513 -0.23843805 0.55200005
0.18314196 -0.23802619 0.551
0.18499424 -0.23847887 0.55200005
0.18651478 -0.23850001 0.55200005
0.18837661 -0.23895377 0.55300003
0.18955785 -0.23854387 0.55200005
0.19108039 -0.23856653 0.55200005
0.19260372 -0.23858978 0.55200005
0.19201763 -0.23601989 0.546
0.19281694 -0.23517931 0.54400003
0.19432037 -0.23520382 0.54400003
0.19762443 -0.23739089 0.54900002
0.19986869 -0.23828164 0.551
0.20102835 -0.2378757 0.55000001
0.20255157 -0.23790276 0.55000001
0.20296253 -0.23663265 0.54700005
0.20410536 -0.23622811 0.546
0.20449032 -0.23495866 0.54300004
0.20637701 -0.23542055 0.54400003
0.20827019 -0.23588318 0.54500002
0.21016988 -0.23634659 0.546
0.2120761 -0.23681074 0.54700005
0.21281736 -0.2359767 0.54500002
0.21433507 -0.23600918 0.54500002
0.21545778 -0.23560926 0.54400003
0.21737362 -0.23607621 0.54500002
0.21849284 -0.23567753 0.54400003
0.22122532 -0.23701261 0.54700005
0.22234677 -0.23661534 0.546
0.22346374 -0.23621869 0.54500002
0.22375068 -0.23495567 0.54200006
0.2261001 -0.23586076 0.54400003
0.2276251 -0.23589966 0.54400003
0.22999379 -0.23680671 0.546
0.23195095 -0.2372811 0.54700005
0.23348816 -0.23732254 0.54700005
0.23545635 -0.23779872 0.54800004
0.23526911 -0.2361058 0.54400003
0.23767252 -0.23701766 0.546
0.23921235 -0.23706232 0.546
0.24075365 -0.23710786 0.546
0.24140884 -0.23628554 0.54400003
0.24205421 -0.23546377 0.54200006
0.24358863 -0.23551156 0.54200006
0.24557684 -0.23599486 0.54300004
0.24848244 -0.23734865 0.546
0.25232255 -0.23957352 0.551
0.25665355 -0.2422352 0.55700004
0.25870225 -0.24272403 0.55800003
0.26029187 -0.24277896 0.55800003
0.26188329 -0.24283487 0.55800003
0.26394871 -0.24332711 0.55900002
0.26649672 -0.24425599 0.56100005
0.27001381 -0.24605727 0.565
0.27547887 -0.24960296 0.57300001
0.27905723 -0.25140861 0.57700002
0.28022808 -0.25103712 0.57600003
0.28139526 -0.25066656 0.57500005
0.28255877 -0.25029686 0.574
0.28470904 -0.25080052 0.57500005
0.28537309 -0.24999665 0.57300001
0.28552702 -0.24875712 0.57000005
0.28667334 -0.24839109 0.56900001
0.28781626 -0.24802607 0.56800002
0.28895572 -0.24766202 0.56700003
0.29009172 -0.24729896 0.56600004
0.29225519 -0.24781099 0.56700003
0.29390863 -0.24788739 0.56700003
0.2924369 -0.24534112 0.56100005
0.29302943 -0.24454434 0.55900002
0.29466704 -0.24462354 0.55900002
0.29948774 -0.24733061 0.565
0.30274731 -0.2487271 0.56800002
0.30388349 -0.24837366 0.56700003
0.30286103 -0.24626853 0.56200004
0.30289549 -0.24503997 0.55900002
0.30291513 -0.24381195 0.55600005
0.30620652 -0.2452164 0.55900002
0.30621421 -0.2439903 0.55600005
0.3089757 -0.2449597 0.55800003
0.30785522 -0.24285708 0.55300003
0.31286454 -0.24558698 0.55900002
0.31509954 -0.24612296 0.56
0.31790945 -0.24710053 0.56200004
0.31618524 -0.24456157 0.55600005
0.31557164 -0.24290209 0.55200005
0.31723613 -0.24300367 0.55200005
0.31832635 -0.24266647 0.551
0.31767178 -0.2410088 0.54700005
0.31582883 -0.2384696 0.54100001
0.3163003 -0.23769376 0.53900003
0.3173531 -0.23735999 0.53800005
0.31840339 -0.2370275 0.537
0.3194513 -0.23669636 0.53600001
0.32049686 -0.23636656 0.53500003
0.32274434 -0.23692214 0.53600001
0.3237915 -0.2365955 0.53500003
0.32361981 -0.23538531 0.53200001
0.32282212 -0.23373298 0.528
0.32200375 -0.23208071 0.52400005
0.32487023 -0.23308724 0.52600002
0.32775342 -0.23409662 0.528
0.3319011 -0.23599605 0.53200001
0.33231619 -0.23523633 0.53000003
0.33461362 -0.23580991 0.53100002
0.33692184 -0.23638596 0.53200001
0.33860454 -0.23651999 0.53200001
0.33709365 -0.23443192 0.52700001
0.33812711 -0.23412378 0.52600002
0.33269876 -0.22936356 0.51500005
0.33045101 -0.22682776 0.509
0.33534628 -0.22919579 0.514
0.34749082 -0.23647678 0.53000003
0.3610613 -0.24466184 0.54800004
0.36415991 -0.24571146 0.55000001
0.36128888 -0.24274136 0.54300004
0.35503483 -0.2375329 0.53100002
0.35341117 -0.23545316 0.52600002
0.35176039 -0.23337284 0.52100003
0.35822386 -0.23667072 0.528
0.35519481 -0.23369575 0.52100003
0.35349539 -0.23161659 0.51600003
0.3689785 -0.24076651 0.53600001
0.37975895 -0.24678542 0.54900002
0.3829869 -0.24786729 0.551
0.36877403 -0.23769858 0.528
0.37687069 -0.24193393 0.537
0.38009846 -0.24302214 0.53900003
0.38346615 -0.24224497 0.53600001
0.38538483 -0.24058162 0.53100002
-0.18082792 -0.2365109 0.54400003
-0.17881383 -0.23777464 0.54700005
-0.17763323 -0.2381897 0.54800004
-0.17216654 -0.23683001 0.54500002
-0.16973011 -0.23550878 0.54200006
-0.16917309 -0.23679505 0.54500002
-0.16890784 -0.23851608 0.54900002
-0.16770639 -0.23893398 0.55000001
-0.16498904 -0.23718025 0.546
-0.16409071 -0.23803338 0.54800004
-0.16288522 -0.23845243 0.54900002
-0.16138074 -0.23843755 0.54900002
-0.15929428 -0.23755446 0.54700005
-0.15808465 -0.23797464 0.54800004
-0.15601268 -0.23709241 0.546
-0.15480116 -0.23751332 0.54700005
-0.15358452 -0.23793454 0.54800004
-0.15347292 -0.24009266 0.55300003
-0.15223518 -0.24051441 0.55400002
-0.15099233 -0.2409364 0.55500001
-0.14893639 -0.24005641 0.55300003
-0.14715837 -0.23961093 0.55200005
-0.14512224 -0.23873173 0.55000001
-0.1441419 -0.23958908 0.55200005
-0.14340934 -0.24088068 0.55500001
-0.14266074 -0.24217252 0.55800003
-0.14088428 -0.24172857 0.55700004
-0.13911361 -0.24128498 0.55600005
-0.13759613 -0.24127562 0.55600005
-0.13583416 -0.24083263 0.55500001
-0.13504604 -0.24212565 0.55800003
-0.13328463 -0.2416832 0.55700004
-0.13200204 -0.24210881 0.55800003
-0.13048041 -0.24210081 0.55800003
-0.12895902 -0.24209304 0.55800003
-0.12766623 -0.24251936 0.55900002
-0.12569125 -0.24164444 0.55700004
-0.12417324 -0.24163741 0.55700004
-0.12265544 -0.24163064 0.55700004
-0.12157279 -0.24249165 0.55900002
-0.11983519 -0.24205153 0.55800003
-0.11810321 -0.24161161 0.55700004
-0.11679547 -0.24203947 0.55800003
-0.11589563 -0.24333499 0.56100005
-0.11477576 -0.24419695 0.56300002
-0.11304173 -0.24375784 0.56200004
-0.11190856 -0.24462011 0.56400001
-0.11037326 -0.24461514 0.56400001
-0.1088381 -0.24461029 0.56400001
-0.10692257 -0.24373829 0.56200004
-0.10464302 -0.2419991 0.55800003
-0.10293976 -0.24156117 0.55700004
-0.10178836 -0.24242444 0.55900002
-0.10062619 -0.24328786 0.56100005
-0.099099956 -0.24328411 0.56100005
-0.097573832 -0.24328047 0.56100005
-0.096390195 -0.24414425 0.56300002
-0.0951958 -0.24500817 0.565
-0.09349332 -0.24457131 0.56400001
-0.091959417 -0.24456823 0.56400001
-0.090265274 -0.24413165 0.56300002
-0.088891871 -0.24456243 0.56400001
-0.087203324 -0.24412613 0.56300002
-0.085976817 -0.24499077 0.565
-0.084440582 -0.24498828 0.565
-0.082904443 -0.24498592 0.565
-0.081368342 -0.24498367 0.565
-0.079973616 -0.24541515 0.56600004
-0.078712076 -0.24628025 0.56800002
-0.077168018 -0.2462783 0.56800002
-0.075357728 -0.24540928 0.56600004
-0.073819198 -0.24540751 0.56600004
-0.07228072 -0.24540582 0.56600004
-0.070992261 -0.24627137 0.56800002
-0.069448434 -0.24626985 0.56800002
-0.067904651 -0.24626842 0.56800002
-0.066127241 -0.24539992 0.56600004
-0.064817198 -0.24626577 0.56800002
-0.063050732 -0.24539743 0.56600004
-0.061621204 -0.24582987 0.56700003
-0.05986838 -0.2449616 0.565
-0.058436196 -0.24539417 0.56600004
-0.056998599 -0.24582677 0.56700003
-0.055653401 -0.24669297 0.56900001
-0.054107171 -0.24669209 0.56900001
-0.052560966 -0.24669132 0.56900001
-0.050745815 -0.24538991 0.56600004
-0.049207799 -0.24538918 0.56600004
-0.047754027 -0.24582209 0.56700003
-0.046294831 -0.24625498 0.56800002
-0.044672642 -0.24582087 0.56700003
-0.042903759 -0.2445197 0.56400001
-0.041371252 -0.24451917 0.56400001
-0.040121306 -0.24625291 0.56800002
-0.038645878 -0.246686 0.56900001
-0.037165023 -0.24711916 0.57000005
-0.035303835 -0.24495107 0.565
-0.033768665 -0.24495071 0.565
-0.032119401 -0.24408332 0.56300002
-0.030644013 -0.24451654 0.56400001
-0.02926643 -0.24581692 0.56700003
-0.027774753 -0.2462502 0.56800002
-0.026231466 -0.24624996 0.56800002
-0.024688182 -0.24624975 0.56800002
-0.023226399 -0.24711664 0.57000005
-0.021677688 -0.24711646 0.57000005
-0.02019961 -0.24798338 0.57200003
-0.01858028 -0.24711616 0.57000005
-0.016971819 -0.24624896 0.56800002
-0.015401393 -0.24581531 0.56700003
-0.013860847 -0.24581519 0.56700003
-0.012385492 -0.24711573 0.57000005
-0.010817788 -0.24668212 0.56900001
-0.0092392238 -0.24581498 0.56700003
-0.0076851076 -0.24538137 0.56600004
-0.0061581484 -0.24581489 0.56700003
-0.0046420437 -0.24711548 0.57000005
-0.0030933563 -0.24711543 0.57000005
-0.0015392493 -0.24624832 0.56800002
3.9890924e-06 -0.24538125 0.56600004
0.0015472558 -0.24624832 0.56800002
0.0031013908 -0.24711543 0.57000005
0.0046337624 -0.24624838 0.56800002
0.0061552655 -0.24538136 0.56600004
0.0076930858 -0.24538137 0.56600004
0.0092798341 -0.24668203 0.56900001
0.010844835 -0.24711567 0.57000005
0.012393526 -0.24711573 0.57000005
0.01396668 -0.24754934 0.57100004
0.015518093 -0.24754946 0.57100004
0.017009718 -0.24668249 0.56900001
0.01849048 -0.24581555 0.56700003
0.019995704 -0.24538216 0.56600004
0.021571588 -0.24581587 0.56700003
0.023193672 -0.24668311 0.56900001
0.024826625 -0.24755038 0.57100004
0.026424255 -0.24798411 0.57200003
0.0279295 -0.24755082 0.57100004
0.029377686 -0.24668398 0.56900001
0.030760661 -0.24538364 0.56600004
0.032355599 -0.2458175 0.56700003
0.033836413 -0.24538428 0.56600004
0.035374306 -0.24538463 0.56600004
0.036846977 -0.24495143 0.565
0.038382165 -0.24495183 0.565
0.039988019 -0.24538583 0.56600004
0.041452579 -0.24495275 0.565
0.043216053 -0.24625389 0.56800002
0.044601832 -0.24538733 0.56600004
0.046139799 -0.2453879 0.56600004
0.047677785 -0.24538854 0.56600004
0.049389679 -0.24625628 0.56800002
0.050843459 -0.24582346 0.56700003
0.052199431 -0.24495709 0.565
0.053544555 -0.24409078 0.56300002
0.055172306 -0.24452519 0.56400001
0.056704968 -0.24452609 0.56400001
0.058444172 -0.24539417 0.56600004
0.059982318 -0.24539518 0.56600004
0.061520502 -0.2453963 0.56600004
0.063058704 -0.24539743 0.56600004
0.064482816 -0.24496506 0.565
0.066018365 -0.24496634 0.565
0.067314833 -0.24410057 0.56300002
0.068722755 -0.24366845 0.56200004
0.070125274 -0.24323636 0.56100005
0.071650118 -0.24323796 0.56100005
0.073435865 -0.24410675 0.56300002
0.075099401 -0.24454209 0.56400001
0.076768398 -0.24497752 0.565
0.078304321 -0.24497949 0.565
0.07984028 -0.24498153 0.565
0.081088252 -0.24411649 0.56300002
0.082618907 -0.24411872 0.56300002
0.084000163 -0.24368751 0.56200004
0.085680418 -0.24412356 0.56300002
0.087211259 -0.24412613 0.56300002
0.088584587 -0.24369523 0.56200004
0.090112872 -0.24369806 0.56200004
0.091641262 -0.243701 0.56200004
0.093003944 -0.24327044 0.56100005
0.094529785 -0.24327365 0.56100005
0.09571325 -0.24240966 0.55900002
0.097233847 -0.24241315 0.55900002
0.099107869 -0.24328411 0.56100005
0.10081349 -0.24372156 0.56200004
0.10252467 -0.24415918 0.56300002
0.10387176 -0.24372959 0.56200004
0.10558861 -0.24416755 0.56300002
0.10712077 -0.24417201 0.56300002
0.1082671 -0.24330923 0.56100005
0.10979409 -0.24331401 0.56100005
0.11112279 -0.24288525 0.56
0.11284852 -0.24332415 0.56100005
0.11376432 -0.24202825 0.55800003
0.11549035 -0.24246751 0.55900002
0.11659402 -0.24160574 0.55700004
0.11853518 -0.24247919 0.55900002
0.11984307 -0.24205156 0.55800003
0.1215807 -0.24249168 0.55900002
0.12266331 -0.24163067 0.55700004
0.124627 -0.24250507 0.55900002
0.12615046 -0.24251211 0.55900002
0.12721734 -0.24165173 0.55700004
0.1280424 -0.24035764 0.55400002
0.1295529 -0.24036536 0.55400002
0.13177335 -0.24167497 0.55700004
0.1332925 -0.24168323 0.55700004
0.13505392 -0.24212566 0.55800003
0.13657632 -0.24213448 0.55800003
0.13809897 -0.24214359 0.55800003
0.13937168 -0.24171896 0.55700004
0.14038627 -0.24086063 0.55500001
0.14139022 -0.24000253 0.55300003
0.14290038 -0.24001272 0.55300003
0.14414974 -0.23958914 0.55200005
0.14539391 -0.23916584 0.551
0.14689957 -0.2391769 0.551
0.14894424 -0.24005648 0.55300003
0.1510002 -0.24093647 0.55500001
0.15224303 -0.24051446 0.55400002
0.15348077 -0.24009275 0.55300003
0.15471342 -0.23967133 0.55200005
0.15509194 -0.2379476 0.54800004
0.15602046 -0.23709249 0.546
0.15780391 -0.23754045 0.54700005
0.1598845 -0.23842312 0.54900002
0.16197646 -0.23930621 0.551
0.16348644 -0.23932119 0.551
0.16499686 -0.23933655 0.551
0.16620557 -0.23891792 0.55000001
0.16771422 -0.23893407 0.55000001
0.16891566 -0.23851615 0.54900002
0.17042258 -0.23853312 0.54900002
0.17161682 -0.23811598 0.54800004
0.17343797 -0.23856832 0.54900002
0.17526515 -0.23902117 0.55000001
0.17645556 -0.23860529 0.54900002
0.17731689 -0.23775516 0.54700005
0.17849472 -0.23734005 0.546
0.17999732 -0.23736006 0.546
0.18150052 -0.23738052 0.546
0.18300436 -0.2374015 0.546
0.18450889 -0.237423 0.546
0.18601403 -0.23744497 0.546
0.18717647 -0.23703256 0.54500002
0.18868025 -0.23705555 0.54500002
0.19018474 -0.23707905 0.54500002
0.19063482 -0.23579797 0.54200006
0.19213249 -0.23582241 0.54200006
0.19327368 -0.23541228 0.54100001
0.1954902 -0.23630819 0.54300004
0.19735575 -0.2367696 0.54400003
0.19922765 -0.23723169 0.54500002
0.20073766 -0.23725916 0.54500002
0.20076406 -0.23554565 0.54100001
0.20151696 -0.23470324 0.53900003
0.20225959 -0.23386118 0.537
0.20413032 -0.23432624 0.53800005
0.20638971 -0.2352276 0.54000002
0.2082762 -0.23569416 0.54100001
0.21055698 -0.23659723 0.54300004
0.21050659 -0.23488651 0.53900003
0.21200824 -0.23491932 0.53900003
0.21232258 -0.23364511 0.53600001
0.21461579 -0.23455106 0.53800005
0.2165195 -0.2350219 0.53900003
0.21923894 -0.23636581 0.54200006
0.22034708 -0.23596616 0.54100001
0.22104062 -0.23513086 0.53900003
0.22131127 -0.23385972 0.53600001
0.2228134 -0.23389804 0.53600001
0.22431673 -0.23393711 0.53600001
0.2270852 -0.23528655 0.53900003
0.22859946 -0.23532741 0.53900003
0.2305419 -0.23580572 0.54000002
0.23163182 -0.23541149 0.53900003
0.23314998 -0.23545475 0.53900003
0.2351049 -0.23593576 0.54000002
0.23750511 -0.23685481 0.54200006
0.23815389 -0.23602667 0.54000002
0.23879282 -0.23519905 0.53800005
0.2394219 -0.23437195 0.53600001
0.24228875 -0.23573217 0.53900003
0.2447218 -0.23665634 0.54100001
0.24762294 -0.23801935 0.54400003
0.25054276 -0.23938389 0.54700005
0.25394213 -0.24118765 0.551
0.25643855 -0.24211751 0.55300003
0.2584815 -0.24261084 0.55400002
0.25912368 -0.24179132 0.55200005
0.26070079 -0.24184863 0.55200005
0.26275489 -0.2423452 0.55300003
0.26720661 -0.24503477 0.55900002
0.27217549 -0.24816518 0.56600004
0.27621907 -0.25042108 0.57100004
0.2759138 -0.24873111 0.56700003
0.27754563 -0.24879655 0.56700003
0.27868718 -0.24842423 0.56600004
0.28131089 -0.2493699 0.56800002
0.28195572 -0.24856067 0.56600004
0.28209016 -0.24731283 0.56300002
0.28321734 -0.24694425 0.56200004
0.28383419 -0.2461371 0.56
0.28444177 -0.24533066 0.55800003
0.28657803 -0.24584432 0.55900002
0.29026926 -0.24767929 0.56300002
0.29346779 -0.24907658 0.56600004
0.2914722 -0.24607396 0.55900002
0.29101121 -0.24439172 0.55500001
0.29263845 -0.24447161 0.55500001
0.29638922 -0.2463154 0.55900002
0.29909983 -0.24728017 0.56100005
0.30075276 -0.24736506 0.56100005
0.30025223 -0.24568698 0.55700004
0.3008149 -0.24489155 0.55500001
0.30027866 -0.24321413 0.551
0.3024613 -0.24374475 0.55200005
0.30244917 -0.24251018 0.54900002
0.30574554 -0.24392752 0.55200005
0.30572161 -0.24269494 0.54900002
0.31016168 -0.24500079 0.55400002
0.31013203 -0.24377058 0.551
0.31121927 -0.24342608 0.55000001
0.30945957 -0.24086896 0.54400003
0.31109819 -0.24096896 0.54400003
0.31446487 -0.24240002 0.54700005
0.31611937 -0.24250384 0.54700005
0.31429163 -0.23994814 0.54100001
0.311847 -0.2369481 0.53400004
0.31288552 -0.23661047 0.53300005
0.31274134 -0.23538586 0.53000003
0.31317556 -0.23460607 0.528
0.31300506 -0.23338267 0.52500004
0.31461763 -0.23349397 0.52500004
0.31623402 -0.23360704 0.52500004
0.31906509 -0.23461224 0.52700001
0.32008696 -0.23428395 0.52600002
0.32110649 -0.23395705 0.52500004
0.31966498 -0.23184811 0.52000004
0.32128569 -0.23196918 0.52000004
0.32104757 -0.23075315 0.51700002
0.32766017 -0.23444989 0.52500004
0.33181831 -0.23636524 0.52900004
0.33348447 -0.2364963 0.52900004
0.3332544 -0.23528744 0.52600002
0.33364671 -0.23452671 0.52400005
0.33531079 -0.23466268 0.52400005
0.33376417 -0.23256031 0.51900005
0.32960525 -0.22866394 0.51000005
0.32539353 -0.22476484 0.50100005
0.32765585 -0.22535197 0.50200003
0.3358328 -0.22998452 0.51200002
0.34539762 -0.23552388 0.52400005
0.35504535 -0.24107239 0.53600001
0.36277959 -0.24528012 0.54500002
0.36054441 -0.24274033 0.53900003
0.3515538 -0.23569284 0.523
0.34921861 -0.23314767 0.51700002
0.3509222 -0.23330884 0.51700002
0.34990326 -0.23166612 0.51300001
0.35023442 -0.23092718 0.51100004
0.36708736 -0.24104317 0.53300005
0.38270921 -0.25027111 0.55300003
0.3838678 -0.2500042 0.55200005
0.37943614 -0.24611342 0.54300004
0.37705699 -0.24358007 0.537
0.37182176 -0.23922957 0.52700001
0.35943592 -0.23033176 0.50700003
0.37399 -0.23869963 0.52500004
0.37793732 -0.24025799 0.528
0.38047394 -0.24091072 0.52900004
0.37868842 -0.23883246 0.52400005
-0.18398449 -0.23633593 0.54000002
-0.18148148 -0.23500074 0.537
-0.18033652 -0.2354167 0.53800005
-0.17918663 -0.23583299 0.53900003
-0.17836159 -0.23668721 0.54100001
-0.17687228 -0.23666687 0.54100001
-0.17603195 -0.23752181 0.54300004
-0.17028908 -0.23571546 0.53900003
-0.16849497 -0.23526017 0.53800005
-0.16763818 -0.23611714 0.54000002
-0.16707866 -0.23741166 0.54300004
-0.16558832 -0.23739484 0.54300004
-0.16379628 -0.23694126 0.54200006
-0.16171071 -0.23605102 0.54000002
-0.16052678 -0.23647262 0.54100001
-0.15933782 -0.23689455 0.54200006
-0.15785258 -0.23687977 0.54200006
-0.15636778 -0.23686536 0.54200006
-0.15431185 -0.23597731 0.54000002
-0.15283336 -0.23596369 0.54000002
-0.15135528 -0.23595046 0.54000002
-0.15126532 -0.23812214 0.54500002
-0.15059878 -0.23942018 0.54800004
-0.14964409 -0.24028152 0.55000001
-0.14787081 -0.23983258 0.54900002
-0.14663656 -0.24025765 0.55000001
-0.14539719 -0.240683 0.551
-0.14389154 -0.24067186 0.551
-0.14290306 -0.24153459 0.55300003
-0.14139262 -0.24152403 0.55300003
-0.14013541 -0.24195053 0.55400002
-0.13812238 -0.24106713 0.55200005
-0.13711052 -0.24193086 0.55400002
-0.13535373 -0.24148479 0.55300003
-0.13360269 -0.24103905 0.55200005
-0.13185735 -0.24059357 0.551
-0.1305909 -0.24102169 0.55200005
-0.12955305 -0.24188662 0.55400002
-0.12827344 -0.24231517 0.55500001
-0.12676021 -0.24230736 0.55500001
-0.12502153 -0.24186322 0.55400002
-0.12351147 -0.24185592 0.55400002
-0.12222183 -0.24228537 0.55500001
-0.12070945 -0.24227852 0.55500001
-0.11876774 -0.24139884 0.55300003
-0.11726119 -0.24139245 0.55300003
-0.11596416 -0.24182276 0.55400002
-0.11486844 -0.24268979 0.55600005
-0.113762 -0.24355695 0.55800003
-0.11204138 -0.24311486 0.55700004
-0.11092165 -0.24398236 0.55900002
-0.10959548 -0.24441357 0.56
-0.10845701 -0.24528141 0.56200004
-0.10635645 -0.24396719 0.55900002
-0.1042724 -0.24265325 0.55600005
-0.10183514 -0.24046662 0.551
-0.10051782 -0.24089877 0.55200005
-0.099195167 -0.24133103 0.55300003
-0.098397166 -0.24307266 0.55700004
-0.09722963 -0.24394156 0.55900002
-0.095708892 -0.24393784 0.55900002
-0.094188266 -0.24393426 0.55900002
-0.092667729 -0.24393083 0.55900002
-0.091636464 -0.24523664 0.56200004
-0.090268277 -0.2456698 0.56300002
-0.088421918 -0.24479406 0.56100005
-0.0868963 -0.24479116 0.56100005
-0.085218571 -0.24435198 0.56
-0.083695821 -0.24434932 0.56
-0.08187969 -0.24347413 0.55800003
-0.080650546 -0.24434432 0.56
-0.07912802 -0.24434201 0.56
-0.077605538 -0.24433979 0.56
-0.076083124 -0.24433763 0.56
-0.07442762 -0.24389932 0.55900002
-0.073038451 -0.24433368 0.56
-0.071516201 -0.24433182 0.56
-0.07036896 -0.245639 0.56300002
-0.06896092 -0.24607363 0.56400001
-0.067308374 -0.24563575 0.56300002
-0.065427639 -0.24432534 0.56
-0.064019717 -0.2447602 0.56100005
-0.062606394 -0.24519512 0.56200004
-0.061078984 -0.24519382 0.56200004
-0.059551615 -0.2451926 0.56200004
-0.058127519 -0.24562772 0.56300002
-0.056496963 -0.24519034 0.56200004
-0.054871865 -0.244753 0.56100005
-0.053442415 -0.24518831 0.56200004
-0.05200756 -0.24562368 0.56300002
-0.050387967 -0.24518651 0.56200004
-0.048686892 -0.24431314 0.56
-0.047165152 -0.24431235 0.56
-0.045561928 -0.24387537 0.55900002
-0.044121735 -0.24431096 0.56
-0.042447902 -0.24343777 0.55800003
-0.041078374 -0.24430971 0.56
-0.03983926 -0.24605422 0.56400001
-0.038442593 -0.24692625 0.56600004
-0.036904655 -0.24692574 0.56600004
-0.035116784 -0.2451802 0.56200004
-0.03341043 -0.24387097 0.55900002
-0.031948596 -0.24430686 0.56
-0.030426998 -0.24430647 0.56
-0.029060261 -0.24561493 0.56300002
-0.027432734 -0.24474211 0.56100005
-0.025954625 -0.24517806 0.56200004
-0.024427621 -0.24517778 0.56200004
-0.023022868 -0.24648631 0.565
-0.021487724 -0.24648607 0.565
-0.019952586 -0.24648586 0.565
-0.018384852 -0.2460494 0.56400001
-0.01685244 -0.24604926 0.56400001
-0.015292865 -0.24561284 0.56300002
-0.013787622 -0.24604897 0.56400001
-0.012233485 -0.24561258 0.56300002
-0.010684788 -0.24517624 0.56200004
-0.0091252299 -0.24430363 0.56
-0.0076172766 -0.24473982 0.56100005
-0.0061038896 -0.245176 0.56200004
-0.0045932136 -0.24604845 0.56400001
-0.0030499636 -0.24517591 0.56200004
-0.0015175812 -0.24430339 0.56
3.9397864e-06 -0.2438671 0.55900002
0.0015254748 -0.24430339 0.56
0.0030578852 -0.24517591 0.56200004
0.0045848484 -0.24517594 0.56200004
0.0061009363 -0.24473976 0.56100005
0.0076387762 -0.24517606 0.56200004
0.0091820527 -0.2456124 0.56300002
0.010768815 -0.24692127 0.56600004
0.012263164 -0.24604882 0.56400001
0.013795571 -0.24604897 0.56400001
0.015300801 -0.24561284 0.56300002
0.016830496 -0.24561301 0.56300002
0.018360192 -0.24561316 0.56300002
0.019925222 -0.24604961 0.56400001
0.021457642 -0.24604981 0.56400001
0.023030831 -0.24648631 0.565
0.024522502 -0.24605031 0.56400001
0.026101135 -0.24648683 0.565
0.02758738 -0.24605086 0.56400001
0.0290682 -0.24561493 0.56300002
0.030434895 -0.24430647 0.56
0.032070622 -0.2451794 0.56200004
0.033537876 -0.24474351 0.56100005
0.035062209 -0.24474394 0.56100005
0.036456116 -0.24387187 0.55900002
0.037975032 -0.24387237 0.55900002
0.039493956 -0.24387288 0.55900002
0.041086271 -0.24430971 0.56
0.042607944 -0.24431033 0.56
0.044208437 -0.24474725 0.56100005
0.045651328 -0.24431163 0.56
0.047173046 -0.24431235 0.56
0.048694786 -0.24431314 0.56
0.050306223 -0.24475026 0.56100005
0.051645935 -0.24387857 0.55900002
0.052974805 -0.24300694 0.55700004
0.054586295 -0.24344416 0.55800003
0.056102712 -0.2434452 0.55800003
0.057722416 -0.24388258 0.55900002
0.0592416 -0.24388373 0.55900002
0.060652129 -0.24344869 0.55800003
0.062057246 -0.24301368 0.55700004
0.063456967 -0.24257873 0.55600005
0.065201834 -0.24345276 0.55800003
0.066598907 -0.24301796 0.55700004
0.067990594 -0.24258325 0.55600005
0.069501877 -0.2425849 0.55600005
0.071140938 -0.24302296 0.55700004
0.072785474 -0.24346107 0.55800003
0.074302353 -0.24346299 0.55800003
0.075955145 -0.24390133 0.55900002
0.077474847 -0.24390347 0.55900002
0.078853294 -0.24346937 0.55800003
0.080226354 -0.24303538 0.55700004
0.081740804 -0.2430378 0.55700004
0.083255313 -0.24304032 0.55700004
0.084769912 -0.24304299 0.55700004
0.086439475 -0.24348211 0.55800003
0.087799318 -0.24304867 0.55700004
0.089153789 -0.24261533 0.55600005
0.090176761 -0.24130936 0.55300003
0.091846667 -0.24174897 0.55400002
0.093353607 -0.24175239 0.55400002
0.095031857 -0.24219231 0.55500001
0.09619382 -0.24132323 0.55300003
0.097698353 -0.24132709 0.55300003
0.099382371 -0.24176745 0.55400002
0.10125405 -0.24264443 0.55600005
0.10276709 -0.24264878 0.55600005
0.1044678 -0.24308971 0.55700004
0.10579353 -0.24265794 0.55600005
0.10711394 -0.24222633 0.55500001
0.10842907 -0.2417949 0.55400002
0.10993733 -0.24180008 0.55400002
0.11144575 -0.24180546 0.55400002
0.11234266 -0.24050158 0.551
0.11384323 -0.24050733 0.551
0.11534397 -0.24051328 0.551
0.11748107 -0.24182899 0.55400002
0.11899033 -0.2418354 0.55400002
0.12006478 -0.24096894 0.55200005
0.12178922 -0.24141234 0.55300003
0.12351931 -0.24185595 0.55400002
0.12525505 -0.24229982 0.55500001
0.12585442 -0.24056104 0.551
0.12735675 -0.2405688 0.551
0.12862545 -0.2401402 0.55000001
0.13036209 -0.24058507 0.551
0.13162582 -0.24015693 0.55000001
0.13312639 -0.24016573 0.55000001
0.134872 -0.24061145 0.551
0.13662337 -0.24105754 0.55200005
0.13787995 -0.24063045 0.551
0.13887843 -0.23976691 0.54900002
0.13986626 -0.2389036 0.54700005
0.14136033 -0.23891403 0.54700005
0.1423324 -0.23805119 0.54500002
0.14355776 -0.23762539 0.54400003
0.1450446 -0.23763672 0.54400003
0.1470705 -0.23852207 0.546
0.14910771 -0.23940784 0.54800004
0.15088138 -0.23985712 0.54900002
0.15238333 -0.23986992 0.54900002
0.15388565 -0.23988301 0.54900002
0.15397321 -0.23771167 0.54400003
0.1548911 -0.23685141 0.54200006
0.15608695 -0.23642839 0.54100001
0.15873402 -0.23819096 0.54500002
0.16081551 -0.23908001 0.54700005
0.16231489 -0.2390953 0.54700005
0.16321579 -0.23823676 0.54500002
0.16440842 -0.23781568 0.54400003
0.16559605 -0.23739491 0.54300004
0.16708639 -0.23741174 0.54300004
0.16857725 -0.23742901 0.54300004
0.17006865 -0.23744671 0.54300004
0.17124465 -0.23702753 0.54200006
0.17273435 -0.23704605 0.54200006
0.17422464 -0.23706506 0.54200006
0.1760397 -0.23752193 0.54300004
0.17753391 -0.23754188 0.54300004
0.17902875 -0.23756234 0.54300004
0.18019171 -0.23714574 0.54200006
0.18134981 -0.2367295 0.54100001
0.18250307 -0.23631372 0.54000002
0.18433295 -0.2367737 0.54100001
0.18651249 -0.23767196 0.54300004
0.18766503 -0.2372577 0.54200006
0.18811478 -0.23596829 0.53900003
0.1892522 -0.23555484 0.53800005
0.19073939 -0.23557973 0.53800005
0.19258462 -0.23604308 0.53900003
0.19371606 -0.23563114 0.53800005
0.19520558 -0.23565771 0.53800005
0.19633029 -0.23524676 0.537
0.1978187 -0.23527443 0.537
0.1981945 -0.2339882 0.53400004
0.19930238 -0.2335787 0.53300005
0.20078228 -0.23360798 0.53300005
0.20264256 -0.23407622 0.53400004
0.20450933 -0.23454523 0.53500003
0.20561254 -0.23413807 0.53400004
0.20709898 -0.23416996 0.53400004
0.20780514 -0.23332535 0.53200001
0.20928797 -0.23335841 0.53200001
0.21077184 -0.23339221 0.53200001
0.21225676 -0.23342668 0.53200001
0.21334097 -0.233023 0.53100002
0.21522978 -0.23349766 0.53200001
0.21753271 -0.23441224 0.53400004
0.21902762 -0.23444968 0.53400004
0.22052369 -0.23448788 0.53400004
0.22118938 -0.23364842 0.53200001
0.22226371 -0.23324873 0.53100002
0.22417639 -0.23372832 0.53200001
0.22609593 -0.23420887 0.53300005
0.22759539 -0.23425084 0.53300005
0.22952598 -0.23473322 0.53400004
0.23103088 -0.2347769 0.53400004
0.23253717 -0.23482142 0.53400004
0.23404483 -0.23486677 0.53400004
0.2346717 -0.23403315 0.53200001
0.23573264 -0.23364006 0.53100002
0.23768295 -0.23412782 0.53200001
0.2391908 -0.23417649 0.53200001
0.24250996 -0.23598714 0.53600001
0.24357702 -0.23559764 0.53500003
0.24647248 -0.23697074 0.53800005
0.24892564 -0.23790479 0.54000002
0.25324717 -0.24060285 0.546
0.25480458 -0.24065852 0.546
0.25636378 -0.24071519 0.546
0.25745237 -0.24033192 0.54500002
0.25901234 -0.24039052 0.54500002
0.26296473 -0.24265614 0.55000001
0.2674287 -0.24536526 0.55600005
0.27144521 -0.24763536 0.56100005
0.27208534 -0.24681701 0.55900002
0.27418488 -0.24732426 0.56
0.27481478 -0.2465076 0.55800003
0.2774168 -0.24745916 0.56
0.27754119 -0.24620233 0.55700004
0.2796551 -0.2467145 0.55800003
0.28228107 -0.24767037 0.56
0.28390706 -0.2477432 0.56
0.28451562 -0.24693224 0.55800003
0.28460208 -0.24567932 0.55500001
0.28673634 -0.24619806 0.55600005
0.28836024 -0.24627542 0.55600005
0.28790039 -0.24458174 0.55200005
0.28794414 -0.24333146 0.54900002
0.28902772 -0.24296838 0.54800004
0.29063836 -0.24304986 0.54800004
0.29385158 -0.24446371 0.551
0.29547641 -0.24454838 0.551
0.297104 -0.24463446 0.551
0.29765007 -0.24383368 0.54900002
0.29818717 -0.24303371 0.54700005
0.29981142 -0.24312344 0.54700005
0.29978538 -0.24188073 0.54400003
0.30251476 -0.24286251 0.546
0.303588 -0.24251157 0.54500002
0.30633846 -0.24349728 0.54700005
0.30516282 -0.24136791 0.54200006
0.3067905 -0.24146588 0.54200006
0.30500713 -0.23889123 0.53600001
0.30776742 -0.23988301 0.53800005
0.30824274 -0.23909286 0.53600001
0.30928749 -0.23874985 0.53500003
0.30684268 -0.23572934 0.528
0.30669561 -0.23449436 0.52500004
0.30946982 -0.23549411 0.52700001
0.30930844 -0.23426107 0.52400005
0.30853894 -0.23258123 0.52000004
0.30894139 -0.23179634 0.51800001
0.31113371 -0.23235551 0.51900005
0.31152824 -0.23157303 0.51700002
0.31312555 -0.23168777 0.51700002
0.31716177 -0.23359777 0.52100003
0.31939119 -0.23416565 0.52200001
0.3173261 -0.2315941 0.51600003
0.3170819 -0.23036878 0.51300001
0.31806555 -0.23004253 0.51200002
0.32279328 -0.23241499 0.51700002
0.32692924 -0.23434208 0.52100003
0.32541895 -0.23222277 0.51600003
0.3257829 -0.23145382 0.514
0.32550174 -0.23023535 0.51100004
0.33032742 -0.23262392 0.51600003
0.33197287 -0.2327618 0.51600003
0.32974374 -0.23019366 0.51000005
0.32683122 -0.22717273 0.50300002
0.3310411 -0.22714898 0.50200003
0.34857556 -0.23816274 0.52600002
0.35428447 -0.24103762 0.53200001
0.35936883 -0.24346517 0.537
0.34431684 -0.23228765 0.51200002
0.34329763 -0.23063102 0.50800002
0.34022039 -0.22761138 0.50100005
0.34597367 -0.23049994 0.50700003
0.35931534 -0.23839945 0.52400005
0.36795285 -0.24312565 0.53400004
0.37597108 -0.24740559 0.54300004
0.37292406 -0.24439889 0.53600001
0.36843821 -0.24047755 0.52700001
0.36881572 -0.23974934 0.52500004
0.36353907 -0.23536637 0.51500005
0.37598601 -0.24051544 0.52500004
0.37995476 -0.24208976 0.528
0.38105923 -0.24183382 0.52700001
0.36545351 -0.2310168 0.50300002
0.36647865 -0.23075631 0.50200003
-0.18162207 -0.23475431 0.53300005
-0.17879975 -0.2329701 0.52900004
-0.17767635 -0.23338857 0.53000003
-0.17721303 -0.23468806 0.53300005
-0.17706354 -0.23642807 0.537
-0.17591175 -0.23684756 0.53800005
-0.17410658 -0.23638703 0.537
-0.17327197 -0.23724757 0.53900003
-0.17115203 -0.23634788 0.537
-0.1696756 -0.23632903 0.537
-0.16726008 -0.23499043 0.53400004
-0.16610344 -0.23541255 0.53500003
-0.16494186 -0.23583505 0.53600001
-0.16408028 -0.23669788 0.53800005
-0.16290596 -0.23712105 0.53900003
-0.16022919 -0.23534508 0.53500003
-0.15816835 -0.23444952 0.53300005
-0.15670696 -0.23443414 0.53300005
-0.15611979 -0.23573858 0.53600001
-0.15465106 -0.23572387 0.53600001
-0.15261115 -0.23483004 0.53400004
-0.15171482 -0.23569557 0.53600001
-0.15024732 -0.23568197 0.53600001
-0.14961295 -0.23698778 0.53900003
-0.14841285 -0.23741448 0.54000002
-0.14802396 -0.23916037 0.54400003
-0.1473442 -0.24046682 0.54700005
-0.14664839 -0.24177344 0.55000001
-0.14488091 -0.24132203 0.54900002
-0.14311926 -0.240871 0.54800004
-0.1413634 -0.2404203 0.54700005
-0.14012469 -0.24084894 0.54800004
-0.13913384 -0.24171738 0.55000001
-0.13763188 -0.24170707 0.55000001
-0.13637771 -0.24213652 0.551
-0.1348736 -0.24212679 0.551
-0.13288566 -0.24123855 0.54900002
-0.13138755 -0.24122941 0.54900002
-0.13012628 -0.24165994 0.55000001
-0.12909368 -0.24253008 0.55200005
-0.12781928 -0.24296106 0.55300003
-0.12653966 -0.24339226 0.55400002
-0.12502915 -0.24338436 0.55400002
-0.12329587 -0.2429374 0.55300003
-0.12200874 -0.24336928 0.55400002
-0.12006385 -0.24248357 0.55200005
-0.11813005 -0.24159808 0.55000001
-0.1164194 -0.24115215 0.54900002
-0.11492372 -0.2411457 0.54900002
-0.11384144 -0.24201792 0.551
-0.11234067 -0.24201189 0.551
-0.1106389 -0.24156684 0.55000001
-0.10973651 -0.24287882 0.55300003
-0.10881791 -0.24419092 0.55600005
-0.10769016 -0.24506398 0.55800003
-0.10541002 -0.24330212 0.55400002
-0.10333936 -0.2419797 0.551
-0.10146999 -0.24109668 0.54900002
-0.10015795 -0.24153128 0.55000001
-0.098661214 -0.2415269 0.55000001
-0.097871237 -0.2432792 0.55400002
-0.09671174 -0.24415338 0.55600005
-0.095199011 -0.24414942 0.55600005
-0.093517885 -0.24370648 0.55500001
-0.091842316 -0.24326375 0.55400002
-0.090824522 -0.24457754 0.55700004
-0.089309476 -0.24457414 0.55700004
-0.08763691 -0.24413183 0.55600005
-0.08596985 -0.2436896 0.55500001
-0.084460504 -0.2436866 0.55500001
-0.083100699 -0.24412285 0.55600005
-0.081735536 -0.24455917 0.55700004
-0.080220975 -0.24455652 0.55700004
-0.078847796 -0.24499306 0.55800003
-0.076914884 -0.24367346 0.55500001
-0.075541846 -0.24411026 0.55600005
-0.074163392 -0.24454705 0.55700004
-0.072779574 -0.24498399 0.55800003
-0.071007244 -0.24410389 0.55600005
-0.069495834 -0.24410199 0.55600005
-0.067984454 -0.24410015 0.55600005
-0.066473126 -0.24409841 0.55600005
-0.064844996 -0.24365769 0.55500001
-0.06345059 -0.24409515 0.55600005
-0.061827984 -0.24365461 0.55500001
-0.060428221 -0.2440922 0.55600005
-0.05891709 -0.24409084 0.55600005
-0.057715729 -0.24540655 0.55900002
-0.056095984 -0.24496634 0.55800003
-0.054579504 -0.24496515 0.55800003
-0.052967966 -0.24452505 0.55700004
-0.051639017 -0.24540199 0.55900002
-0.050030239 -0.24496199 0.55800003
-0.048339985 -0.24408309 0.55600005
-0.046660613 -0.24320418 0.55400002
-0.045073643 -0.24276435 0.55300003
-0.043649711 -0.24320257 0.55400002
-0.042068209 -0.24276283 0.55300003
-0.040638875 -0.24320112 0.55400002
-0.039345399 -0.24451745 0.55700004
-0.038035624 -0.24583378 0.56
-0.036513954 -0.24583319 0.56
-0.034867328 -0.24495469 0.55800003
-0.033231579 -0.24407621 0.55600005
-0.031663757 -0.24363671 0.55500001
-0.030210055 -0.24407528 0.55600005
-0.028750926 -0.24451385 0.55700004
-0.027188569 -0.24407446 0.55600005
-0.025677841 -0.24407412 0.55600005
-0.024123648 -0.24363481 0.55500001
-0.022656398 -0.2440735 0.55600005
-0.021183714 -0.24451219 0.55700004
-0.019705608 -0.24495092 0.55800003
-0.018189473 -0.2449507 0.55800003
-0.01670322 -0.24538943 0.55900002
-0.015184376 -0.24538925 0.55900002
-0.013665535 -0.24538909 0.55900002
-0.012146696 -0.24538894 0.55900002
-0.010608848 -0.24494983 0.55800003
-0.0090601426 -0.24407177 0.55600005
-0.0075494633 -0.24407166 0.55600005
-0.0060496461 -0.24451056 0.55700004
-0.0045443955 -0.24494947 0.55800003
-0.0030228591 -0.24451047 0.55700004
-0.0015040464 -0.24363247 0.55500001
3.9116335e-06 -0.24363244 0.55500001
0.0015091455 -0.24319349 0.55400002
0.0030307104 -0.24451047 0.55700004
0.0045359456 -0.24407153 0.55600005
0.0060574971 -0.24451056 0.55700004
0.0075708926 -0.24451064 0.55700004
0.0091005992 -0.24494971 0.55800003
0.010654767 -0.24582778 0.56
0.01217632 -0.24582791 0.56
0.013624493 -0.24451114 0.55700004
0.015083545 -0.24363333 0.55500001
0.016561626 -0.24319454 0.55400002
0.018164726 -0.24451172 0.55700004
0.019748801 -0.24538989 0.55900002
0.02126766 -0.24539015 0.55900002
0.022704996 -0.24451247 0.55700004
0.024218433 -0.24451278 0.55700004
0.025731873 -0.24451309 0.55700004
0.027245324 -0.24451348 0.55700004
0.028655514 -0.24363588 0.55500001
0.030163543 -0.24363628 0.55500001
0.031671584 -0.24363674 0.55500001
0.033239417 -0.24407621 0.55600005
0.034687694 -0.24363771 0.55500001
0.036130548 -0.24319927 0.55400002
0.037567981 -0.24276087 0.55300003
0.03907064 -0.24276148 0.55300003
0.040646687 -0.24320112 0.55400002
0.042228181 -0.24364081 0.55500001
0.043815132 -0.24408057 0.55600005
0.045162965 -0.24320334 0.55400002
0.046668425 -0.24320418 0.55400002
0.048173904 -0.24320507 0.55400002
0.049858756 -0.244084 0.55600005
0.051277328 -0.24364598 0.55500001
0.052500267 -0.24233003 0.55200005
0.054098234 -0.24277012 0.55300003
0.055701666 -0.2432103 0.55400002
0.057310559 -0.24365051 0.55500001
0.058712959 -0.2432128 0.55400002
0.060109966 -0.24277517 0.55300003
0.061390139 -0.24189854 0.551
0.062887765 -0.24190006 0.551
0.064502269 -0.24234068 0.55200005
0.066122249 -0.24278133 0.55300003
0.067503139 -0.24234405 0.55200005
0.069253653 -0.24322391 0.55400002
0.070504189 -0.24234778 0.55200005
0.072135232 -0.24278882 0.55300003
0.073638611 -0.24279092 0.55300003
0.075277917 -0.24323215 0.55400002
0.076784126 -0.24323444 0.55400002
0.078290388 -0.24323684 0.55400002
0.079796717 -0.24323937 0.55400002
0.08130312 -0.243242 0.55400002
0.082660124 -0.24280564 0.55300003
0.084011756 -0.24236943 0.55200005
0.085512936 -0.24237238 0.55200005
0.087014206 -0.24237549 0.55200005
0.088034496 -0.24106145 0.54900002
0.089364715 -0.24062569 0.54800004
0.09085536 -0.24062914 0.54800004
0.092851654 -0.24195006 0.551
0.094179437 -0.24151473 0.55000001
0.095327921 -0.24064037 0.54800004
0.09646564 -0.23976618 0.546
0.097951375 -0.23977034 0.546
0.099437237 -0.23977472 0.546
0.10129291 -0.24065755 0.54800004
0.10297202 -0.24110141 0.54900002
0.10465671 -0.24154545 0.55000001
0.10615397 -0.24155051 0.55000001
0.10765139 -0.24155577 0.55000001
0.10895051 -0.24112202 0.54900002
0.11024433 -0.24068846 0.54800004
0.11153287 -0.24025504 0.54700005
0.11302274 -0.24026105 0.54700005
0.11472215 -0.24070652 0.54800004
0.11642717 -0.24115218 0.54900002
0.11792303 -0.24115886 0.54900002
0.11920157 -0.24072646 0.54800004
0.12069509 -0.24073356 0.54800004
0.1224118 -0.24118018 0.54900002
0.12390848 -0.24118778 0.54900002
0.1247201 -0.23987758 0.546
0.1255156 -0.23856759 0.54300004
0.12699659 -0.23857583 0.54300004
0.12895104 -0.23946309 0.54500002
0.13091667 -0.24035069 0.54700005
0.13216724 -0.23992033 0.546
0.13390225 -0.24036916 0.54700005
0.13539544 -0.24037881 0.54700005
0.13663866 -0.23994926 0.546
0.13762371 -0.23908049 0.54400003
0.1391096 -0.23909098 0.54400003
0.14111267 -0.2399808 0.546
0.14260466 -0.23999195 0.546
0.14330521 -0.23868468 0.54300004
0.14478965 -0.2386964 0.54300004
0.1465438 -0.23914805 0.54400003
0.14857592 -0.24003968 0.546
0.15006962 -0.24005248 0.546
0.15184133 -0.24050531 0.54700005
0.15249753 -0.2391997 0.54400003
0.15313776 -0.23789431 0.54100001
0.15404774 -0.23702887 0.53900003
0.15552428 -0.23704328 0.53900003
0.15758379 -0.23793767 0.54100001
