# .PCD v0.7 - Point Cloud Data file format
VERSION 0.7
FIELDS x y z normal_x normal_y normal_z curvature
SIZE 4 4 4 4 4 4 4
TYPE F F F F F F F
COUNT 1 1 1 1 1 1 1
WIDTH 599
HEIGHT 1
VIEWPOINT 0 0 0 1 0 0 0
POINTS 599
DATA ascii
0.15950231 0.13128738 0.66600001 0.064428225 0.11931399 -0.99076396 0.016782789
0.16154885 0.13147788 0.66700006 0.095872514 0.11878391 -0.98828077 0.014506237
0.16311085 0.13127416 0.66600001 0.11496225 0.11645935 -0.98651963 0.01272216
0.16516255 0.13146473 0.66700006 0.1398308 0.12202978 -0.98262715 0.012485932
0.16721949 0.13165529 0.66800004 0.16069567 0.12585253 -0.97894746 0.010603497
0.16928178 0.13184589 0.66900003 0.18103278 0.12939292 -0.97492802 0.0099708028
0.17109358 0.13183945 0.66900003 0.19930984 0.13239808 -0.97095126 0.0097379601
0.1729053 0.13183306 0.66900003 0.21163005 0.13724551 -0.96766543 0.0085003991
0.17497809 0.13202378 0.67000002 0.22279932 0.14785771 -0.96358627 0.0085650133
0.17705618 0.13221453 0.671 0.23378019 0.15856509 -0.95927262 0.0087227337
0.1794062 0.13260238 0.67300004 0.24364534 0.17217886 -0.95445865 0.0086237323
0.18122837 0.13259621 0.67300004 0.24533792 0.17843416 -0.9528749 0.0080757448
0.18332247 0.13278711 0.67400002 0.24606125 0.18805079 -0.9508369 0.0073839971
0.18487254 0.13258407 0.67300004 0.24291869 0.18912774 -0.95143116 0.0078703575
0.18724932 0.13297211 0.67500001 0.24147604 0.201958 -0.94915873 0.0074572912
0.18935682 0.13316321 0.67600006 0.23712145 0.20698941 -0.94917268 0.0062585082
0.19090404 0.13296042 0.67500001 0.2346561 0.20773521 -0.94962239 0.0059143244
0.19273131 0.13295472 0.67500001 0.23317717 0.21153478 -0.94914776 0.005680481
0.19455858 0.13294908 0.67500001 0.23234396 0.21369103 -0.94886905 0.0056571146
0.19696774 0.1333375 0.67700005 0.23259163 0.21962553 -0.94745219 0.0038660353
0.19880044 0.13333206 0.67700005 0.23154832 0.22129832 -0.94731855 0.0034018091
0.20063311 0.13332672 0.67700005 0.23012128 0.22231305 -0.94742876 0.0030477275
0.20276488 0.13351844 0.67800003 0.22888303 0.2245058 -0.94721156 0.0035967105
0.20520385 0.13390718 0.68000001 0.22807696 0.22681516 -0.94685578 0.0058817184
0.20704477 0.13390218 0.68000001 0.22931147 0.22383614 -0.9472664 0.0068512387
0.20919292 0.13409421 0.68100005 0.23151931 0.22081244 -0.94743896 0.0083634946
0.21072674 0.13389255 0.68000001 0.2302376 0.21575372 -0.94891572 0.0093478449
0.21256785 0.13388793 0.68000001 0.22641015 0.21160565 -0.95076895 0.011465698
0.21440905 0.13388345 0.68000001 0.22199555 0.20667417 -0.95289236 0.013416643
0.21688637 0.13427286 0.68200004 0.22544774 0.19346833 -0.95485246 0.014308761
0.21873319 0.13426866 0.68200004 0.22728552 0.18412773 -0.95626271 0.015297606
0.2202567 0.13406771 0.68100005 0.23486824 0.17342566 -0.95643109 0.016868623
0.22177494 0.13386692 0.68000001 0.23776595 0.16456389 -0.95728052 0.019242939
0.22394563 0.13406004 0.68100005 0.23772494 0.15358682 -0.95911306 0.020099962
0.22612189 0.13425331 0.68200004 0.23677811 0.1450295 -0.96067822 0.022425082
0.22796947 0.1342499 0.68200004 0.24053486 0.13565157 -0.96111482 0.023747439
0.2294803 0.13404977 0.68100005 0.246381 0.12559256 -0.96100104 0.025634978
0.23132558 0.13404669 0.68100005 0.24977745 0.11177807 -0.9618299 0.027433336
0.23351349 0.13424063 0.68200004 0.25587165 0.097831048 -0.96174783 0.028455637
0.23536195 0.1342379 0.68200004 0.25981757 0.089011595 -0.96154648 0.028916553
0.23755851 0.1344322 0.68300003 0.26694265 0.07293117 -0.96094882 0.030653659
0.23976073 0.13462666 0.68400002 0.26885802 0.062180594 -0.96117061 0.031335425
0.24232192 0.13501815 0.68600005 0.27602503 0.051216315 -0.95978492 0.034201127
0.24062285 0.13304803 0.67600006 0.29383475 0.041682463 -0.95494705 0.035988621
0.069959596 0.16119935 0.82700002 -0.86759967 0.49142855 -0.075952314 0.012355781
0.07347519 0.15436283 0.79200006 -0.78011954 0.47273993 -0.40979311 0.0063349674
0.075156115 0.15338334 0.78700006 -0.77112091 0.48300874 -0.41481939 0.0050523635
0.077006027 0.15279354 0.78400004 -0.76798433 0.48652458 -0.41652602 0.0041408525
0.078637488 0.15181391 0.77900004 -0.76188594 0.4907679 -0.42270175 0.0034619262
0.080345176 0.15102911 0.77500004 -0.75708336 0.4924024 -0.42937687 0.0033684594
0.082030855 0.15024425 0.77100003 -0.74876857 0.49533257 -0.4404445 0.0034225336
0.083912775 0.14984906 0.76900005 -0.74501997 0.5001598 -0.44134501 0.0036314237
0.08567173 0.14925893 0.76600003 -0.73825604 0.504843 -0.44733843 0.0035798962
0.087299563 0.14847389 0.76200002 -0.72684532 0.51068074 -0.4592396 0.0033336759
0.0887881 0.14749396 0.75700003 -0.71198165 0.51958019 -0.47235417 0.0032563449
0.090489209 0.14690365 0.75400001 -0.70297736 0.52691722 -0.47768304 0.003295264
0.09217377 0.14631334 0.75100005 -0.69462109 0.53446436 -0.48150745 0.0030985533
0.093967207 0.14591774 0.74900001 -0.68890387 0.53846753 -0.48524651 0.0028381995
0.095493197 0.1451325 0.74500006 -0.68140751 0.54854929 -0.4845385 0.0027799497
0.096866265 0.14415242 0.74000001 -0.67610651 0.56589997 -0.4718444 0.002663929
0.098345518 0.14336714 0.73600006 -0.67429745 0.57882094 -0.45857304 0.0024837216
0.0999391 0.14277658 0.73300004 -0.67266375 0.58723235 -0.45020181 0.0020791888
0.10179427 0.14257558 0.73200005 -0.67418712 0.5891158 -0.44543728 0.0020662774
0.10336019 0.14198497 0.72900003 -0.6745109 0.59518939 -0.43678907 0.0016224714
0.10490953 0.14139432 0.72600001 -0.67693102 0.5985744 -0.42833757 0.0014445948
0.10629514 0.14060892 0.72200006 -0.67945588 0.60213482 -0.41925335 0.0011725124
0.10765874 0.13982353 0.71800005 -0.67990577 0.60354358 -0.41648915 0.0012261295
0.10900036 0.1390381 0.71400005 -0.67934555 0.60585868 -0.41403484 0.0013022592
0.11031996 0.13825271 0.71000004 -0.67728209 0.60945022 -0.41213995 0.0013905284
0.11193381 0.13785672 0.708 -0.67810392 0.60747385 -0.4137035 0.0012537661
0.11353654 0.13746074 0.70600003 -0.67908901 0.60624033 -0.41389683 0.0011664783
0.11496464 0.13687003 0.70300001 -0.67837721 0.60462582 -0.41741106 0.0011595417
0.11637621 0.13627934 0.70000005 -0.67617166 0.59998405 -0.42756414 0.0016075153
0.11760227 0.13549396 0.69600004 -0.66710359 0.59147239 -0.4529162 0.0025858313
0.11897805 0.13490328 0.69300002 -0.66056591 0.58270168 -0.47340411 0.0038516247
0.12068611 0.13470192 0.69200003 -0.66111434 0.57287031 -0.48450747 0.0045027114
0.12203427 0.13411126 0.68900001 -0.65186065 0.55433005 -0.51749009 0.0068950406
0.12336592 0.13352062 0.68600005 -0.63863444 0.53490388 -0.5531944 0.010391804
0.12431594 0.13254072 0.68100005 -0.60423476 0.49136427 -0.62726504 0.018376932
0.12560913 0.13195013 0.67800003 -0.57924569 0.45721775 -0.67485285 0.023687765
0.12726176 0.13174878 0.67700005 -0.55514312 0.42849025 -0.71289009 0.027600134
0.12890875 0.13154742 0.67600006 -0.54120028 0.40309188 -0.73798317 0.030679729
0.13035668 0.13115148 0.67400002 -0.51067537 0.37360063 -0.77435994 0.033698123
0.13159743 0.13056095 0.671 -0.4644129 0.3342396 -0.82012469 0.034550376
0.13321935 0.13035963 0.67000002 -0.42905623 0.29996675 -0.85201561 0.034933221
0.1350372 0.13035285 0.67000002 -0.40719756 0.28111827 -0.86900091 0.036435537
0.13665056 0.13015151 0.66900003 -0.36434907 0.25306836 -0.8962177 0.036141284
0.13825831 0.12995018 0.66800004 -0.33165056 0.23777795 -0.91294557 0.035983864
0.14007013 0.1299434 0.66800004 -0.29311198 0.21492356 -0.9316079 0.035778794
0.14166935 0.1297421 0.66700006 -0.25864404 0.19928685 -0.94519198 0.03523713
0.14326294 0.1295408 0.66600001 -0.21865642 0.1806877 -0.95892715 0.033742882
0.14463311 0.12914504 0.66400003 -0.17619447 0.16004616 -0.97125727 0.030689804
0.14665385 0.12933278 0.66500002 -0.1391255 0.15135922 -0.97863907 0.030323008
0.14867982 0.12952051 0.66600001 -0.11005248 0.14441934 -0.98337758 0.029613173
0.15071104 0.12970822 0.66700006 -0.076490201 0.13939859 -0.98727769 0.027588127
0.15229018 0.12950701 0.66600001 -0.042032421 0.12998191 -0.99062502 0.025313396
0.15386373 0.12930585 0.66500002 -0.013696168 0.11853769 -0.99285507 0.022629857
0.1556658 0.12929916 0.66500002 0.015438925 0.11330703 -0.99344009 0.019296924
0.15770449 0.12948692 0.66600001 0.044519417 0.1108737 -0.99283683 0.017367197
0.15974846 0.1296747 0.66700006 0.0707298 0.11106667 -0.99129289 0.016047252
0.16179769 0.12986249 0.66800004 0.094705261 0.11320499 -0.98904777 0.013585676
0.16311739 0.12946707 0.66600001 0.11201756 0.10683627 -0.98794639 0.01257922
0.16492143 0.12946054 0.66600001 0.13439958 0.1081061 -0.98501259 0.01064255
0.16672534 0.12945403 0.66600001 0.15219767 0.10777072 -0.9824568 0.0092367008
0.16903518 0.12983631 0.66800004 0.17412557 0.11482942 -0.97800535 0.0090269819
0.17110001 0.13002422 0.66900003 0.19467363 0.12301611 -0.97312349 0.0096786646
0.17265321 0.12982349 0.66800004 0.20389603 0.12345772 -0.97117692 0.0086626383
0.17472325 0.1300115 0.66900003 0.21394275 0.13265739 -0.96779668 0.0081336806
0.1765347 0.13000523 0.66900003 0.21910366 0.13737732 -0.9659819 0.0079118935
0.17887922 0.13038763 0.671 0.23152418 0.15310262 -0.96070611 0.0089114718
0.18096523 0.13057579 0.67200005 0.237102 0.16598415 -0.95719999 0.0086601917
0.18278459 0.13056968 0.67200005 0.23955135 0.1714229 -0.95563036 0.0083685704
0.18432911 0.13036934 0.671 0.23888995 0.1721198 -0.9556706 0.0087290294
0.18670045 0.13075197 0.67300004 0.23490025 0.18234329 -0.95476317 0.0079547977
0.18908255 0.13113463 0.67500001 0.23359798 0.19340013 -0.95290524 0.0074620545
0.19090979 0.1311288 0.67500001 0.23209195 0.19717532 -0.95249945 0.0069308286
0.19302255 0.13131735 0.67600006 0.23055984 0.20306577 -0.95163357 0.0061275987
0.19485243 0.1313117 0.67600006 0.22899474 0.20618963 -0.95133966 0.0061651836
0.19726419 0.13169463 0.67800003 0.23111793 0.21331419 -0.94925314 0.0046603438
0.19909948 0.13168915 0.67800003 0.23222673 0.21400139 -0.9488278 0.0040670456
0.20093477 0.13168378 0.67800003 0.23089275 0.21535225 -0.94884765 0.0038320571
0.20277005 0.13167854 0.67800003 0.22967054 0.21488911 -0.94924921 0.003464581
0.20490716 0.1318676 0.67900002 0.22846942 0.2151095 -0.94948912 0.0045973044
0.20704974 0.13205677 0.68000001 0.23173612 0.2145756 -0.94881809 0.0065806271
0.20889056 0.13205186 0.68000001 0.23519933 0.21025351 -0.94893348 0.0075639966
0.21073145 0.13204706 0.68000001 0.2341622 0.20695883 -0.94991374 0.0092609329
0.21257243 0.13204239 0.68000001 0.23275001 0.20182008 -0.95136529 0.012257779
0.21472883 0.13223204 0.68100005 0.23253341 0.19110668 -0.95362806 0.014147831
0.21657266 0.13222763 0.68100005 0.23778261 0.18369916 -0.95378935 0.014970077
0.21873736 0.13241753 0.68200004 0.24366355 0.16999304 -0.95484573 0.017678864
0.22026072 0.13221927 0.68100005 0.24633688 0.16236836 -0.95548666 0.01832764
0.2217788 0.13202113 0.68000001 0.24909709 0.15398577 -0.95615846 0.020105503
0.22394934 0.13221148 0.68100005 0.25073287 0.14182882 -0.95761031 0.022087319
0.22579387 0.13220783 0.68100005 0.25321007 0.13284448 -0.95824683 0.023217136
0.22730429 0.13201019 0.68000001 0.26011989 0.11858243 -0.95826709 0.025262162
0.22948349 0.13220102 0.68100005 0.26549274 0.10824113 -0.95801747 0.026383432
0.23132862 0.13219787 0.68100005 0.2718122 0.094033524 -0.95774513 0.027526041
0.23317394 0.13219488 0.68100005 0.27506262 0.083778523 -0.95776916 0.028687805
0.23467438 0.13199794 0.68000001 0.28073892 0.069632232 -0.95725495 0.02987022
0.23721316 0.13238357 0.68200004 0.28989837 0.060753155 -0.95512718 0.030525062
0.23976301 0.13276935 0.68400002 0.29919586 0.045403443 -0.95311087 0.031417992
0.24267726 0.13334942 0.68700004 0.30187398 0.038022321 -0.95258933 0.032649506
0.23991279 0.13082406 0.67400002 0.31752875 0.021511082 -0.9480046 0.034691703
0.065454714 0.15896286 0.82700002 -0.88689458 0.45499432 -0.079988338 0.025150271
0.068200879 0.16011159 0.83300006 -0.84286833 0.48643324 -0.23012123 0.02392287
0.070387363 0.15991466 0.83200002 -0.83580595 0.49062023 -0.24641484 0.020464314
0.072131574 0.15875661 0.82600003 -0.86651242 0.49421278 -0.070070714 0.011935206
0.073387355 0.15202004 0.79100001 -0.78068715 0.4721927 -0.40934283 0.0057336725
0.075256646 0.15143849 0.78800005 -0.77470744 0.48143232 -0.40994048 0.0050423876
0.07691294 0.15047254 0.78300005 -0.76795959 0.48660281 -0.41648027 0.0038266312
0.078339867 0.14912218 0.77600002 -0.75973588 0.49318853 -0.42375284 0.003352257
0.079935774 0.14815612 0.77100003 -0.74951571 0.49948868 -0.43443891 0.0034988571
0.08161065 0.14738217 0.76700002 -0.74251986 0.50832921 -0.43619451 0.0031900257
0.083590895 0.14718463 0.76600003 -0.73828191 0.51080912 -0.44046995 0.0035152123
0.085229918 0.14641054 0.76200002 -0.72659689 0.51789623 -0.45148683 0.0030984511
0.086846933 0.14563642 0.75800002 -0.7167818 0.52507299 -0.45882717 0.0031288541
0.088441931 0.14486225 0.75400001 -0.70488584 0.53308922 -0.46792278 0.0030617504
0.090014935 0.14408803 0.75000006 -0.69387621 0.54286385 -0.47311157 0.0025554423
0.091811419 0.14369801 0.74800003 -0.68719673 0.54782027 -0.47713071 0.0023837262
0.093471318 0.14311582 0.74500006 -0.68270361 0.55511028 -0.47515085 0.0022283038
0.094986461 0.14234148 0.74100006 -0.67695367 0.56902772 -0.46684182 0.0023167809
0.096610516 0.1417592 0.73800004 -0.67368358 0.57783246 -0.46071681 0.0022021905
0.097950749 0.14079276 0.73300004 -0.67210466 0.59331304 -0.44300675 0.0017799059
0.099672586 0.1404025 0.73100001 -0.6705153 0.59832162 -0.43865746 0.001554001
0.10138331 0.14001216 0.72900003 -0.67127639 0.60169917 -0.43283492 0.0013980714
0.1032247 0.13981387 0.72800004 -0.67176938 0.601942 -0.43173134 0.001298576
0.10462689 0.13903937 0.72400004 -0.67399043 0.60647249 -0.42181528 0.0012094344
0.10585985 0.13807283 0.71900004 -0.67508256 0.60911113 -0.41622972 0.00099085458
0.10721531 0.13729833 0.71500003 -0.67437559 0.612822 -0.41190624 0.0011875472
0.10839614 0.13633183 0.71000004 -0.67317545 0.61517924 -0.41035277 0.0011965821
0.11001568 0.13594136 0.708 -0.67370296 0.61278474 -0.41306069 0.00096308853
0.11146604 0.13535887 0.70500004 -0.67331707 0.61269915 -0.41381633 0.0010415321
0.11322149 0.13516037 0.70400006 -0.67438954 0.61082596 -0.41483772 0.0011826314
0.11464418 0.13457786 0.70100003 -0.67125893 0.60777992 -0.4242819 0.0013357481
0.11621659 0.13418731 0.69900006 -0.66898763 0.60112685 -0.43715221 0.0016996935
0.11727096 0.13322087 0.69400001 -0.65723479 0.59144384 -0.46715811 0.0029565357
0.11864133 0.13263838 0.69100004 -0.65022343 0.5768677 -0.4944016 0.0043338588
0.12016958 0.13224784 0.68900001 -0.6430977 0.56277132 -0.51933974 0.0064501651
0.1215096 0.13166536 0.68600005 -0.62934488 0.54229808 -0.55663073 0.0096910661
0.12265328 0.130891 0.68200004 -0.60333008 0.50750595 -0.61516708 0.015679343
0.12377498 0.13011664 0.67800003 -0.56868112 0.47080332 -0.67449689 0.020988777
0.1252453 0.12972616 0.67600006 -0.54589957 0.44495007 -0.70993876 0.024594488
0.12708052 0.12971947 0.67600006 -0.53021342 0.42711172 -0.73242706 0.028242294
0.1287248 0.12952085 0.67500001 -0.51041937 0.40098286 -0.76071334 0.029964034
0.13036343 0.12932223 0.67400002 -0.48298931 0.37194043 -0.79270524 0.03233806
0.13180031 0.12893176 0.67200005 -0.44878638 0.3326264 -0.82942784 0.034002349
0.13362379 0.128925 0.67200005 -0.4292298 0.31339568 -0.84708029 0.036300354
0.13504396 0.12853453 0.67000002 -0.3824763 0.27892756 -0.8808583 0.034772571
0.13686159 0.12852776 0.67000002 -0.35693526 0.25811517 -0.89776039 0.035876594
0.1382651 0.12813736 0.66800004 -0.30913123 0.23059148 -0.92264044 0.033654593
0.13986722 0.12793876 0.66700006 -0.27426106 0.20750855 -0.93900007 0.033296969
0.1414637 0.1277402 0.66600001 -0.23932396 0.19114828 -0.95193827 0.032341897
0.14326969 0.12773344 0.66600001 -0.20222113 0.17104042 -0.96428823 0.031796556
0.14485767 0.12753491 0.66500002 -0.16586728 0.15589358 -0.97374803 0.029969219
0.14688113 0.12771994 0.66600001 -0.13551307 0.15160285 -0.9791081 0.030167477
0.14890984 0.12790497 0.66700006 -0.10210004 0.14415056 -0.98427445 0.028482994
0.15116973 0.12828171 0.66900003 -0.06914296 0.14082393 -0.98761731 0.02735704
0.15275428 0.12808323 0.66800004 -0.036949512 0.13081442 -0.99071813 0.024991021
0.15433319 0.12788476 0.66700006 -0.0085143326 0.11860999 -0.99290442 0.022218168
0.15567248 0.12749463 0.66500002 0.02122679 0.10751782 -0.99397653 0.018186608
0.15794794 0.12787139 0.66700006 0.045985509 0.10754447 -0.99313623 0.016686361
0.15999459 0.12805644 0.66800004 0.074141391 0.10525475 -0.99167758 0.014276487
0.16204651 0.12824152 0.66900003 0.099854857 0.10567533 -0.9893744 0.012683341
0.16361384 0.12804323 0.66800004 0.11683526 0.10194515 -0.9879052 0.011267953
0.16517562 0.127845 0.66700006 0.13641134 0.099872693 -0.98560512 0.010247108
0.16698217 0.12783849 0.66700006 0.15449576 0.10039125 -0.98287976 0.009016322
0.16904165 0.12802367 0.66800004 0.17169185 0.10336158 -0.97971332 0.0080357017
0.17085066 0.12801725 0.66800004 0.18620895 0.10665169 -0.97670448 0.0081362659
0.17265956 0.12801087 0.66800004 0.19606644 0.11028865 -0.97436875 0.0079740612
0.17420718 0.12781291 0.66700006 0.20393777 0.112568 -0.97249049 0.0081857452
0.17627706 0.12799826 0.66800004 0.20953248 0.12363567 -0.96995378 0.0081076557
0.17835225 0.12818365 0.66900003 0.21672802 0.13494605 -0.96686012 0.0080543831
0.18043277 0.12836909 0.67000002 0.22509116 0.14628989 -0.9632929 0.0095343795
0.18224661 0.12836298 0.67000002 0.2301001 0.15307286 -0.96105283 0.0098404204
0.18406039 0.12835696 0.67000002 0.23313008 0.15824495 -0.95948362 0.0095245102
0.1861515 0.12854257 0.671 0.23279083 0.16686861 -0.95810401 0.0092263417
0.18824804 0.12872827 0.67200005 0.22903027 0.17230648 -0.95804781 0.0089622429
0.18978423 0.1285309 0.671 0.22873841 0.17367616 -0.95787019 0.0082875257
0.19245712 0.1290998 0.67400002 0.22665203 0.18381418 -0.95647329 0.007083341
0.19428153 0.12909417 0.67400002 0.22723028 0.18821084 -0.95548052 0.0071118525
0.19697875 0.12966318 0.67700005 0.22943635 0.19942549 -0.95267439 0.006458798
0.19910489 0.12984923 0.67800003 0.23166509 0.20465969 -0.95102352 0.0053847646
0.20094009 0.12984385 0.67800003 0.2316424 0.20512235 -0.95092934 0.0046371189
0.20277527 0.12983856 0.67800003 0.23113063 0.20488919 -0.9511041 0.0041863243
0.20491228 0.13002488 0.67900002 0.23314634 0.20493689 -0.95060176 0.0051098275
0.20675026 0.13001981 0.67900002 0.23660699 0.19842456 -0.95112824 0.0059753084
0.20889543 0.13020635 0.68000001 0.23971096 0.19715719 -0.95061439 0.00714642
0.21073622 0.13020152 0.68000001 0.24130949 0.19264559 -0.9511348 0.0093868468
0.21257703 0.13019681 0.68000001 0.24093196 0.18576914 -0.95259732 0.011766691
0.21410264 0.13000077 0.67900002 0.24239254 0.17927364 -0.95347095 0.012899436
0.21657702 0.13037926 0.68100005 0.24533671 0.17195453 -0.9540658 0.015586615
0.21777935 0.12999205 0.67900002 0.24980544 0.16176842 -0.95468748 0.016166756
0.21961789 0.1299879 0.67900002 0.2578918 0.1508726 -0.95432132 0.017623138
0.22145654 0.12998387 0.67900002 0.26221269 0.14358513 -0.95426816 0.018884148
0.22362423 0.13017146 0.68000001 0.2652683 0.12836668 -0.95559132 0.022487845
0.22546589 0.13016775 0.68000001 0.27117172 0.11682752 -0.95541465 0.024164021
0.22697346 0.12997279 0.67900002 0.27878717 0.10801011 -0.95425969 0.024601132
0.22914977 0.13016082 0.68000001 0.28137189 0.091439359 -0.95523226 0.026586762
0.23133171 0.13034901 0.68100005 0.29199621 0.077937432 -0.95323867 0.027442191
0.23317686 0.13034596 0.68100005 0.29490432 0.067882694 -0.95311248 0.028024158
0.23467714 0.13015169 0.68000001 0.30140769 0.057417262 -0.95176506 0.029336208
0.23686792 0.13034041 0.68100005 0.306981 0.042735562 -0.9507556 0.028676374
0.24011596 0.13110347 0.68500006 0.32054424 0.029846217 -0.94676328 0.031520724
0.24267946 0.13148391 0.68700004 0.3269453 0.016257528 -0.94490349 0.032955397
0.066250704 0.1586117 0.83700001 -0.8580932 0.47106037 -0.20439714 0.035182003
0.068451151 0.15841763 0.83600003 -0.85088319 0.48134145 -0.21049498 0.02827323
0.070645951 0.15822342 0.83500004 -0.84315217 0.48649108 -0.22895584 0.023907818
0.072223775 0.15670273 0.82700002 -0.87666744 0.47584414 -0.070898592 0.018246679
0.073392265 0.14987175 0.79100001 -0.77954191 0.47649601 -0.40652919 0.005556378
0.075166166 0.14910896 0.78700006 -0.77340734 0.48402053 -0.40934736 0.0045962525
0.076819807 0.1481566 0.78200006 -0.76674527 0.48739183 -0.41779298 0.0035740645
0.078244083 0.14682528 0.77500004 -0.75710976 0.49724939 -0.42370722 0.0033572891
0.07973367 0.14568341 0.76900005 -0.74610817 0.50772727 -0.43073851 0.0033797086
0.081296772 0.14473094 0.76400006 -0.73796207 0.51845306 -0.43199345 0.0032297543
0.083159804 0.14434671 0.76200002 -0.7280767 0.52363497 -0.44239208 0.003236234
0.084899873 0.14377297 0.75900006 -0.71836883 0.52937287 -0.45134318 0.0029440753
0.086508796 0.14300977 0.75500005 -0.70758861 0.53693372 -0.45936966 0.0025941292
0.087978393 0.14205711 0.75000006 -0.69463205 0.54920942 -0.46460238 0.0021353697
0.089660607 0.14148322 0.74700004 -0.68795621 0.55415213 -0.46864864 0.0018751208
0.091326237 0.14090928 0.74400002 -0.68235475 0.56305045 -0.46622553 0.0021672498
0.092975318 0.14033529 0.74100006 -0.67821884 0.57417256 -0.45863393 0.0018370461
0.094607837 0.13976127 0.73800004 -0.675982 0.58244717 -0.45144618 0.0019482516
0.096354701 0.13937657 0.73600006 -0.67345786 0.58884829 -0.44689161 0.0017896027
0.097689539 0.13842373 0.73100001 -0.67060751 0.60180551 -0.43372312 0.0013441883
0.099406004 0.13803895 0.72900003 -0.66820115 0.60754424 -0.4294149 0.0012331913
0.10097227 0.13746476 0.72600001 -0.66810614 0.61169577 -0.42363012 0.0011424099
0.10280557 0.13726923 0.72500002 -0.66962254 0.60990822 -0.42381316 0.001009199
0.10405511 0.13631633 0.72000003 -0.67283314 0.61232108 -0.41516078 0.00077463081
0.10527722 0.13536343 0.71500003 -0.67102367 0.61731839 -0.41066447 0.0010206521
0.10662185 0.13459986 0.71100003 -0.67079282 0.61799079 -0.41002968 0.0010149281
0.10809717 0.13402559 0.708 -0.67025739 0.61720395 -0.41208521 0.00094938587
0.10955594 0.13345131 0.70500004 -0.67050308 0.61635822 -0.41295063 0.0009871386
0.11099817 0.13287704 0.70200002 -0.66896391 0.61470211 -0.41788587 0.00099551398
0.11274551 0.1326813 0.70100003 -0.66850853 0.61192983 -0.42265609 0.0012041494
0.11399652 0.13191772 0.69700003 -0.66050601 0.60529357 -0.44424269 0.0019275061
0.11539183 0.13134342 0.69400001 -0.65250611 0.59694558 -0.46678874 0.002626739
0.11660162 0.13057989 0.69000006 -0.64064068 0.58037144 -0.50274104 0.0043035769
0.11830454 0.13038407 0.68900001 -0.63756567 0.56866407 -0.51974142 0.0058805393
0.12000181 0.13018824 0.68800002 -0.63295949 0.55714023 -0.53754711 0.0078852903
0.12133912 0.12961395 0.68500006 -0.61472982 0.53239876 -0.58194399 0.012191787
0.12230021 0.12866125 0.68000001 -0.57735515 0.49371728 -0.65031081 0.01777254
0.12341649 0.12789781 0.67600006 -0.53930956 0.45523927 -0.70845079 0.022156978
0.12488139 0.12751281 0.67400002 -0.51076198 0.42896828 -0.74505603 0.024735261
0.12671119 0.12750615 0.67400002 -0.49887279 0.40773949 -0.76477087 0.026594279
0.1285408 0.12749948 0.67400002 -0.4786323 0.38642147 -0.78840947 0.028687691
0.13017674 0.12730362 0.67300004 -0.45112851 0.36191857 -0.81578064 0.030274471
0.13180704 0.12710775 0.67200005 -0.42558935 0.33483756 -0.84068877 0.032186311
0.13343169 0.12691188 0.671 -0.39364415 0.30255923 -0.86804503 0.032395247
0.13484915 0.12652688 0.66900003 -0.35283139 0.27148965 -0.89543474 0.032562789
0.13625553 0.12614192 0.66700006 -0.30611911 0.23892541 -0.92152369 0.030267255
0.13785784 0.12594607 0.66600001 -0.27760133 0.2185006 -0.93551856 0.029725682
0.13966425 0.12593935 0.66600001 -0.24671617 0.19528516 -0.94920754 0.029321907
0.14147045 0.1259326 0.66600001 -0.22064029 0.18015905 -0.95857221 0.030434139
0.1428462 0.12554774 0.66400003 -0.18363577 0.16172884 -0.96959871 0.027554372
0.14464658 0.12554102 0.66400003 -0.1513852 0.14735849 -0.97742927 0.027608305
0.14644676 0.12553431 0.66400003 -0.12079038 0.13566561 -0.98336387 0.026620843
0.14869329 0.12590569 0.66600001 -0.089989424 0.13258538 -0.98707801 0.026778001
0.15072452 0.12608801 0.66700006 -0.058760863 0.1247415 -0.99044776 0.024180101
0.15253231 0.1260813 0.66700006 -0.028067602 0.11827524 -0.99258411 0.02104394
0.15410851 0.12588559 0.66600001 0.00020985593 0.11151976 -0.9937622 0.018975055
0.15591325 0.12587892 0.66600001 0.023958327 0.10519117 -0.99416339 0.016727934
0.15795462 0.12606128 0.66700006 0.05010068 0.10218809 -0.99350262 0.01519087
0.16000125 0.12624362 0.66800004 0.074765608 0.099659085 -0.99220872 0.013892998
0.16181089 0.12623699 0.66800004 0.098174907 0.095304221 -0.99059516 0.012076208
0.16337548 0.12604146 0.66700006 0.11905839 0.092907764 -0.98853087 0.011233797
0.16493446 0.12584594 0.66600001 0.13327906 0.089299664 -0.9870472 0.0090779485
0.1667383 0.12583946 0.66600001 0.15017788 0.08924073 -0.98462307 0.0082208142
0.16854195 0.125833 0.66600001 0.16374423 0.089111187 -0.98246986 0.0071437182
0.17060131 0.12601553 0.66700006 0.17673846 0.093909696 -0.97976756 0.006944254
0.17240743 0.12600915 0.66700006 0.18864764 0.099757098 -0.97696495 0.0076601482
0.17421348 0.12600283 0.66700006 0.1975463 0.10660606 -0.97447962 0.0080297021
0.17628331 0.12618548 0.66800004 0.20601605 0.11614904 -0.97163099 0.0080175661
0.17835842 0.12636817 0.66900003 0.20889494 0.12547201 -0.96985543 0.0075293249
0.18043891 0.12655088 0.67000002 0.21894507 0.13702929 -0.96606731 0.0090417461
0.18198065 0.1263559 0.66900003 0.22167723 0.13818409 -0.9652794 0.0094696162
0.18406639 0.12653875 0.67000002 0.22666086 0.14862469 -0.96256715 0.010144406
0.18615745 0.12672164 0.671 0.22862273 0.15739551 -0.96070713 0.0091599161
0.18825391 0.12690461 0.67200005 0.2264398 0.16491444 -0.95996261 0.009054048
0.18978997 0.12670994 0.671 0.22540666 0.16525264 -0.96014756 0.0091921268
0.19189176 0.12689304 0.67200005 0.22520998 0.16839865 -0.959647 0.007367562
0.19399887 0.12707622 0.67300004 0.22404112 0.17305325 -0.95909238 0.0065225004
0.19669333 0.1276371 0.67600006 0.22710483 0.18540218 -0.95605934 0.007550722
0.19911034 0.1280092 0.67800003 0.23106557 0.19165711 -0.95387429 0.0063623246
0.20064907 0.12781501 0.67700005 0.23122376 0.19183956 -0.95379931 0.0066479426
0.20218234 0.12762092 0.67600006 0.23289269 0.18782167 -0.95419288 0.0069545936
0.20401204 0.12761573 0.67600006 0.23836382 0.18579736 -0.95323765 0.0067651984
0.20645078 0.12798822 0.67800003 0.24115159 0.18524817 -0.95264322 0.0061188499
0.20859315 0.12817201 0.67900002 0.24475048 0.18253851 -0.95224839 0.0073061204
0.2104311 0.12816715 0.67900002 0.2501545 0.17642578 -0.95199621 0.0087452615
0.21226908 0.12816241 0.67900002 0.24830541 0.1696368 -0.95371258 0.011257883
0.21379185 0.12796907 0.67800003 0.2511102 0.16322717 -0.95409673 0.012283828
0.21594535 0.12815334 0.67900002 0.2561377 0.15341747 -0.95438808 0.0144328
0.21746287 0.12796026 0.67800003 0.25862575 0.14800081 -0.95457244 0.01484069
0.21962199 0.1281448 0.67900002 0.26778176 0.13443957 -0.95405394 0.017367614
0.22178666 0.12832946 0.68000001 0.27468327 0.12308306 -0.95362449 0.018908458
0.22362803 0.12832555 0.68000001 0.28177315 0.11306756 -0.95279568 0.021182377
0.22546954 0.12832178 0.68000001 0.28665292 0.10498794 -0.95226455 0.022804085
0.22697696 0.12812948 0.67900002 0.29149333 0.093882874 -0.95195466 0.023869503
0.22915313 0.12831473 0.68000001 0.30069667 0.080396339 -0.95032525 0.025899708
0.23099518 0.12831146 0.68000001 0.30922154 0.067419201 -0.94859725 0.026504513
0.23352227 0.12868573 0.68200004 0.31083244 0.049848299 -0.94915664 0.027306734
0.23537022 0.12868279 0.68200004 0.31856102 0.037749 -0.94715041 0.027633009
0.23791403 0.12905738 0.68400002 0.32649761 0.02427873 -0.94488615 0.028389802
0.24117002 0.1298095 0.68800002 0.3373782 0.0082686972 -0.94133282 0.03079278
0.24338822 0.12999573 0.68900001 0.34562165 -0.0032811046 -0.9383682 0.031555269
0.063666821 0.15559526 0.83300006 -0.8590579 0.47759625 -0.18417726 0.044168759
0.066176042 0.15615122 0.83600003 -0.85943335 0.47743872 -0.18282929 0.044182684
0.068455778 0.15614668 0.83600003 -0.85927111 0.4775098 -0.18340524 0.044171434
0.070650712 0.15595523 0.83500004 -0.85906684 0.47758466 -0.18416567 0.044169936
0.073118791 0.14716293 0.78800005 -0.77559209 0.48340902 -0.40592194 0.0045329886
0.074789084 0.14622426 0.78300005 -0.77064186 0.48711899 -0.41088465 0.0035445858
0.076431915 0.14528555 0.77800006 -0.76432729 0.49444398 -0.413919 0.0035953647
0.07784535 0.14397331 0.77100003 -0.75495476 0.50448489 -0.41897285 0.003352948
0.079324126 0.14284779 0.76500005 -0.74471664 0.51707745 -0.42193368 0.0028016472
0.080982812 0.14209567 0.76100004 -0.73033297 0.52917999 -0.43195188 0.0024751003
0.082837768 0.14171693 0.75900006 -0.72071272 0.53419054 -0.44182998 0.0025068831
0.084569745 0.1411514 0.75600004 -0.71282774 0.54064959 -0.44673765 0.0024059492
0.086055987 0.1402124 0.75100005 -0.69880205 0.55158263 -0.45544723 0.0018738587
0.087632068 0.13946007 0.74700004 -0.69057316 0.55947381 -0.45836416 0.0014497507
0.089186147 0.13870771 0.74300003 -0.68426722 0.57031167 -0.45444781 0.0015916999
0.090840973 0.13814199 0.74000001 -0.68009746 0.57945436 -0.44911021 0.0015647585
0.092479222 0.13757621 0.73700005 -0.67825943 0.58767974 -0.44113094 0.001421478
0.094229132 0.13719706 0.73500001 -0.67683953 0.59244978 -0.43691137 0.0013216602
0.095836975 0.13663119 0.73200005 -0.67523366 0.59857571 -0.43100661 0.0013614824
0.097428262 0.13606527 0.72900003 -0.672544 0.60522836 -0.42589095 0.001387143
0.09913934 0.13568598 0.72700006 -0.67040855 0.61046219 -0.42176807 0.0011884377
0.10070023 0.13511999 0.72400004 -0.66855848 0.61396998 -0.41960755 0.0011488902
0.10238636 0.13474062 0.72200006 -0.66877884 0.61525702 -0.41736513 0.00092534436
0.10362776 0.13380134 0.71700001 -0.67009312 0.61888403 -0.40982655 0.00072550704
0.104989 0.1330487 0.71300006 -0.67030102 0.61919379 -0.40901777 0.00086242979
0.10617823 0.13210942 0.708 -0.66891831 0.61951143 -0.41079658 0.00092010142
0.10764545 0.13154338 0.70500004 -0.66757685 0.6189822 -0.41376597 0.00073735352
0.1092515 0.1311639 0.70300001 -0.66793716 0.61762321 -0.41521251 0.00097663165
0.11068833 0.1305978 0.70000005 -0.66508073 0.61385816 -0.42525962 0.0012017459
0.11226944 0.13021827 0.69800001 -0.66082501 0.60900819 -0.43865633 0.0014906118
0.11351233 0.12946562 0.69400001 -0.65068716 0.5992853 -0.46632954 0.0022144984
0.11506578 0.12908606 0.69200003 -0.64312917 0.59006441 -0.48806641 0.0032866963
0.11627015 0.12833343 0.68800002 -0.62835097 0.56982738 -0.52959585 0.0069796331
0.11796768 0.1281404 0.68700004 -0.62285793 0.55833846 -0.54800189 0.0082902638
0.11931068 0.12757431 0.68400002 -0.60493755 0.53098541 -0.59338439 0.012362604
0.1208143 0.12719473 0.68200004 -0.58666927 0.50772107 -0.63090289 0.01619681
0.1219471 0.12644216 0.67800003 -0.55222344 0.47475308 -0.6853165 0.019431328
0.1234231 0.1260626 0.67600006 -0.52505785 0.4506585 -0.72195649 0.022413606
0.12507331 0.12586953 0.67500001 -0.50167793 0.42806539 -0.75171751 0.025079442
0.12690586 0.1258629 0.67500001 -0.4844501 0.41002691 -0.77277815 0.026752666
0.12835675 0.12548333 0.67300004 -0.4488031 0.3735728 -0.8118 0.028597597
0.12999 0.12529023 0.67200005 -0.42227244 0.34684962 -0.83748513 0.029076647
0.13161759 0.1250971 0.671 -0.39775661 0.32186994 -0.85917956 0.029997773
0.13323954 0.12490398 0.67000002 -0.36359471 0.2964642 -0.88312393 0.03088589
0.13485587 0.12471089 0.66900003 -0.32834104 0.26300949 -0.9072035 0.030337797
0.13646653 0.12451776 0.66800004 -0.29337233 0.23955204 -0.92549849 0.030138152
0.13786456 0.12413827 0.66600001 -0.25662023 0.21466872 -0.94237119 0.028666958
0.13967097 0.12413158 0.66600001 -0.2259651 0.19413906 -0.95459408 0.027515182
0.14147717 0.12412486 0.66600001 -0.20433329 0.17629746 -0.96289521 0.028715121
0.14306803 0.12393178 0.66500002 -0.17256694 0.15872772 -0.97212464 0.027141063
0.14508897 0.12411144 0.66600001 -0.14280407 0.14718349 -0.97874612 0.027029851
0.14689459 0.12410472 0.66600001 -0.11394023 0.13354027 -0.98447174 0.025707286
0.1487 0.12409802 0.66600001 -0.08139798 0.12679249 -0.98858386 0.023809277
0.15050524 0.12409133 0.66600001 -0.055373363 0.12073353 -0.99113941 0.023370082
0.15253901 0.12427098 0.66700006 -0.020095252 0.11349323 -0.9933356 0.020384936
0.1543466 0.12426428 0.66700006 0.0058463416 0.11068456 -0.99383831 0.019892471
0.15591989 0.12407132 0.66600001 0.029812343 0.099731982 -0.99456769 0.01616752
0.15772441 0.12406468 0.66600001 0.054590955 0.094688237 -0.99400902 0.014308176
0.15952879 0.12405808 0.66600001 0.078683347 0.089498803 -0.99287409 0.012768241
0.16157524 0.12423777 0.66700006 0.098489307 0.086633109 -0.99136001 0.01264448
0.16338202 0.1242312 0.66700006 0.1171869 0.084713005 -0.98949021 0.010567849
0.16518864 0.12422468 0.66700006 0.13628468 0.08395116 -0.9871062 0.0095166462
0.16699514 0.12421819 0.66700006 0.15328304 0.084341675 -0.9845764 0.0084640961
0.16905455 0.12439797 0.66800004 0.16512585 0.087227784 -0.98240763 0.0066616083
0.17086346 0.12439154 0.66800004 0.17544763 0.090844601 -0.98028845 0.0064953202
0.17267226 0.12438518 0.66800004 0.1856758 0.095588513 -0.97795063 0.0067944401
0.17448096 0.12437885 0.66800004 0.19363773 0.099630728 -0.97600108 0.0068518878
0.17655346 0.12455877 0.66900003 0.2006534 0.11076224 -0.97338068 0.0075213467
0.17836463 0.12455255 0.66900003 0.2037638 0.11639042 -0.97207695 0.0079090586
0.18044503 0.12473256 0.67000002 0.21303526 0.12730984 -0.96871471 0.0091040824
0.18198673 0.12454031 0.66900003 0.21618274 0.13040973 -0.96760446 0.0095420228
0.18434711 0.12490657 0.671 0.22376385 0.14371645 -0.96398926 0.0099482788
0.18644083 0.12508674 0.67200005 0.22313856 0.15099218 -0.96302158 0.0094053634
0.18825975 0.12508084 0.67200005 0.22298415 0.15470465 -0.96246791 0.0096936747
0.18951289 0.12470276 0.67000002 0.2227398 0.15285984 -0.96281922 0.0092805643
0.19132631 0.12469703 0.67000002 0.22220887 0.15469094 -0.96264941 0.0081094699
0.19342794 0.1248775 0.671 0.22224644 0.15750661 -0.96218407 0.0074054878
0.19582595 0.12524414 0.67300004 0.22300123 0.16182297 -0.96129274 0.0069049797
0.19794108 0.12542474 0.67400002 0.2257542 0.16735038 -0.95970243 0.0075352872
0.19976524 0.12541935 0.67400002 0.23015454 0.16851319 -0.95845306 0.0071566319
0.20158939 0.12541406 0.67400002 0.2331419 0.16787003 -0.95784372 0.0076084547
0.20311177 0.1252228 0.67300004 0.23412205 0.1640534 -0.95826584 0.0074826353
0.20523778 0.12540379 0.67400002 0.24117348 0.1637788 -0.95656252 0.0077547855
0.20767644 0.12577093 0.67600006 0.24808639 0.16270965 -0.95497578 0.0074988343
0.20981607 0.12595211 0.67700005 0.25248471 0.15841325 -0.95454526 0.0079590781
0.21164852 0.12594736 0.67700005 0.25515869 0.15294206 -0.95472658 0.010448546
0.21316576 0.12575671 0.67600006 0.25548619 0.14631407 -0.95567727 0.011610368
0.21563172 0.12612426 0.67800003 0.26349837 0.14024301 -0.95441109 0.012767645
0.21746716 0.1261199 0.67800003 0.26766348 0.12909763 -0.95482457 0.015182992
0.21962616 0.12630168 0.67900002 0.28027055 0.11831519 -0.95260173 0.017716954
0.22146451 0.12629756 0.67900002 0.28638247 0.1069813 -0.952124 0.018986402
0.2236319 0.12647961 0.68000001 0.29604223 0.097783566 -0.95015651 0.021504784
0.22580485 0.12666181 0.68100005 0.30157864 0.085886158 -0.94956511 0.02302471
0.22731479 0.12647215 0.68000001 0.30991143 0.078750357 -0.94749838 0.023892071
0.22915651 0.12646864 0.68000001 0.318391 0.066521466 -0.94562262 0.025133288
0.23133813 0.1266513 0.68100005 0.32297778 0.049653552 -0.94510311 0.025504153
0.23386775 0.12702006 0.68300003 0.33047298 0.034809466 -0.94317329 0.026444778
0.23640846 0.12738898 0.68500006 0.33495978 0.02053229 -0.94200867 0.027063111
0.23896025 0.12775807 0.68700004 0.35195643 0.003579967 -0.93600953 0.027717724
0.24187365 0.12831327 0.69000006 0.35653713 -0.013323187 -0.93418622 0.029246364
0.24303736 0.12793887 0.68800002 0.36527413 -0.022122417 -0.93063706 0.029486971
0.063976869 0.15406829 0.83700001 -0.859366 0.4774996 -0.18298714 0.044176225
0.06625966 0.15406391 0.83700001 -0.85888511 0.47763437 -0.18488298 0.044167869
0.068460375 0.15387534 0.83600003 -0.85880452 0.47761196 -0.18531471 0.044205863
0.07031697 0.15295042 0.83100003 -0.85664207 0.47666249 -0.19737583 0.038869627
0.071155548 0.14539494 0.79000002 -0.80143493 0.46987322 -0.37002876 0.0063093165
0.072752431 0.14428595 0.78400004 -0.77358097 0.48728326 -0.40512654 0.0037671356
0.074411914 0.14336094 0.77900004 -0.76774776 0.49196073 -0.41053367 0.0036166755
0.076043941 0.14243586 0.77400005 -0.76237625 0.49873927 -0.41236097 0.0037318747
0.077446543 0.14114271 0.76700002 -0.74850613 0.51881629 -0.41299897 0.0023583528
0.079018183 0.14021756 0.76200002 -0.73743057 0.52955639 -0.41924489 0.0022686336
0.080668777 0.13947634 0.75800002 -0.72211844 0.53966737 -0.43278655 0.0018583981
0.082406513 0.1389191 0.75500005 -0.7118541 0.54691076 -0.44062728 0.0018627929
0.08423955 0.13854577 0.75300002 -0.70584035 0.54953283 -0.44699335 0.001830256
0.085603081 0.13743643 0.74700004 -0.69374877 0.56192267 -0.45050573 0.0012953884
0.087168351 0.13669503 0.74300003 -0.68848538 0.57173574 -0.44621322 0.0011903505
0.088831648 0.13613757 0.74000001 -0.68398821 0.5795573 -0.44302753 0.0012221871
0.090601146 0.13576403 0.73800004 -0.68152004 0.58458906 -0.44021127 0.0014033749
0.092359506 0.1353904 0.73600006 -0.67943424 0.59017885 -0.43595639 0.0012012824
0.093978554 0.13483278 0.73300004 -0.67895037 0.59593236 -0.42882517 0.0012642321
0.09558101 0.13427509 0.73000002 -0.67691284 0.60148215 -0.42427394 0.0013558683
0.097033262 0.13353346 0.72600001 -0.67523509 0.60718614 -0.41878679 0.0013901028
0.098599881 0.13297574 0.72300005 -0.67308062 0.61120343 -0.41640472 0.0011751795
0.10001083 0.13223407 0.71900004 -0.67140436 0.61531824 -0.41303718 0.00086858671
0.1016834 0.13186018 0.71700001 -0.67127925 0.61750787 -0.40996122 0.00077402999
0.1030558 0.13111848 0.71300006 -0.66977143 0.62118995 -0.40685287 0.0008592977
0.10470069 0.13074453 0.71100003 -0.67015117 0.62053037 -0.40723383 0.00088020321
0.10588454 0.1298189 0.70600003 -0.66745609 0.62009746 -0.41228816 0.00065383787
0.10749905 0.12944493 0.70400006 -0.66703403 0.61896759 -0.41466212 0.00079885282
0.10879159 0.12870318 0.70000005 -0.6623708 0.61557227 -0.42700773 0.0012134757
0.11037843 0.12832916 0.69800001 -0.65930587 0.61227554 -0.43638787 0.0015764803
0.11179329 0.12777127 0.69500005 -0.65244365 0.60346258 -0.45842147 0.0020907426
0.11319161 0.12721339 0.69200003 -0.63989496 0.58940071 -0.49309352 0.0033457619
0.11440709 0.12647167 0.68800002 -0.62548774 0.57214206 -0.53048915 0.0067072897
0.11593861 0.1260976 0.68600005 -0.61257106 0.557069 -0.56074125 0.0092833005
0.11728729 0.12553971 0.68300003 -0.5912689 0.5334233 -0.60486406 0.012598846
0.11896834 0.12534943 0.68200004 -0.57991695 0.52217042 -0.62532729 0.015327918
0.12028939 0.12479155 0.67900002 -0.55596179 0.49293676 -0.66926825 0.018303208
0.12177379 0.12441748 0.67700005 -0.52874452 0.46745434 -0.70846009 0.020386877
0.12324707 0.12404338 0.67500001 -0.49951944 0.43976361 -0.74638343 0.022666378
0.1248946 0.12385306 0.67400002 -0.47089773 0.41080922 -0.78069913 0.025045216
0.12653646 0.12366273 0.67300004 -0.44786987 0.38845682 -0.80530363 0.027041871
0.12817267 0.12347239 0.67200005 -0.42044926 0.35982725 -0.83291465 0.026987491
0.1298032 0.12328202 0.671 -0.39467797 0.33678114 -0.854873 0.028400907
0.13123193 0.12290795 0.66900003 -0.35373202 0.30026692 -0.88584054 0.026822295
0.13284849 0.1227176 0.66800004 -0.32644638 0.27619895 -0.90396178 0.027789559
0.13445938 0.12252726 0.66700006 -0.29516906 0.25649205 -0.92037332 0.027628073
0.1360646 0.12233689 0.66600001 -0.26411614 0.2309756 -0.93642563 0.028231332
0.13745721 0.12196288 0.66400003 -0.22560921 0.20395941 -0.95262843 0.025579873
0.13925822 0.12195624 0.66400003 -0.20480864 0.18719858 -0.96073413 0.025248094
0.14127143 0.12213323 0.66500002 -0.18457486 0.16904809 -0.96817088 0.026444558
0.14328986 0.12231021 0.66600001 -0.15564144 0.15487905 -0.97559631 0.025775062
0.14487782 0.12211988 0.66500002 -0.13023365 0.14220279 -0.9812327 0.024875976
0.14646015 0.12192958 0.66400003 -0.10198035 0.12345496 -0.98709619 0.022993373
0.14803687 0.12173931 0.66300005 -0.075688474 0.11655257 -0.9902963 0.022633437
0.15005994 0.12191627 0.66400003 -0.049310833 0.1091575 -0.99280065 0.019567911
0.15231697 0.12227684 0.66600001 -0.018243801 0.10693531 -0.9940986 0.018952673
0.15389042 0.12208658 0.66500002 0.0066736373 0.1003058 -0.99493426 0.018118167
0.15592651 0.12226354 0.66600001 0.037262969 0.095901191 -0.9946931 0.015393149
0.15725736 0.1218898 0.66400003 0.05795024 0.088763177 -0.99436557 0.014944891
0.15905629 0.12188322 0.66400003 0.078595594 0.084326975 -0.99333364 0.013623201
0.16085505 0.12187668 0.66400003 0.09839274 0.080083109 -0.99192017 0.012836785
0.16289863 0.12205371 0.66500002 0.11662649 0.075957105 -0.99026704 0.0098270783
0.16469979 0.12204722 0.66500002 0.13408242 0.076031663 -0.98804915 0.008446564
0.16675122 0.12222429 0.66600001 0.14886336 0.07761886 -0.98580682 0.0072981175
0.16880789 0.12240137 0.66700006 0.16132362 0.080065787 -0.98364842 0.0070680347
0.17112565 0.12276197 0.66900003 0.17664075 0.085805744 -0.98052812 0.0071205189
0.17267862 0.12257212 0.66800004 0.18231408 0.08847668 -0.97925144 0.0070980224
0.17448725 0.1225658 0.66800004 0.18815331 0.093535997 -0.9776755 0.0076756859
0.17629577 0.12255954 0.66800004 0.19222458 0.099964693 -0.97624624 0.0073832152
0.1783708 0.1227368 0.66900003 0.19915336 0.10992225 -0.97378391 0.0077907112
0.18018183 0.12273066 0.66900003 0.20286691 0.11435805 -0.97250563 0.0081436699
0.18226483 0.12290801 0.67000002 0.21283942 0.12619223 -0.96890402 0.0089695994
0.18407838 0.12290197 0.67000002 0.21593063 0.13221507 -0.96741569 0.0091988407
0.18616933 0.12307944 0.671 0.21767229 0.13925181 -0.96603709 0.0095053548
0.18798545 0.12307353 0.671 0.22022353 0.14307852 -0.96489906 0.0091113569
0.18951868 0.1228843 0.67000002 0.22058673 0.14281861 -0.96485454 0.0085372906
0.19133198 0.12287857 0.67000002 0.2214558 0.1462348 -0.96414351 0.0083080977
0.19314528 0.12287293 0.67000002 0.22070819 0.14687411 -0.96421772 0.0076619638
0.1955405 0.12323414 0.67200005 0.22124167 0.15040922 -0.96355033 0.0073251082
0.19735917 0.12322865 0.67200005 0.22465408 0.151428 -0.96260071 0.0079171266
0.1991778 0.12322325 0.67200005 0.22503433 0.15118194 -0.96255058 0.0076200278
0.20099646 0.12321798 0.67200005 0.23067984 0.15065564 -0.96129584 0.0079461522
0.20281512 0.12321278 0.67200005 0.23575753 0.14883073 -0.96034777 0.0073967511
0.2052428 0.12357438 0.67400002 0.24555968 0.14850831 -0.95793831 0.0078659654
0.20706692 0.12356938 0.67400002 0.24956644 0.14686726 -0.95715547 0.0077377111
0.20951097 0.12393118 0.67600006 0.2589151 0.14500602 -0.95495355 0.0083567686
0.21165323 0.12410974 0.67700005 0.26563677 0.13931552 -0.95395404 0.0098737301
0.21380098 0.12428839 0.67800003 0.26629913 0.13253693 -0.95473486 0.011560282
0.21531814 0.12410056 0.67700005 0.26973662 0.12564795 -0.95470136 0.012099688
0.21747148 0.12427945 0.67800003 0.28227654 0.11418056 -0.95251393 0.014453827
0.21963035 0.12445848 0.67900002 0.29357561 0.099718697 -0.95072049 0.01743705
0.22212094 0.12482093 0.68100005 0.30050763 0.087939851 -0.94971669 0.020160984
0.22363579 0.12463362 0.68000001 0.30608737 0.079645991 -0.94866598 0.021564003
0.22580861 0.12481306 0.68100005 0.31580204 0.068955474 -0.94631612 0.022627186
0.22731839 0.12462607 0.68000001 0.32224852 0.059148382 -0.94480544 0.022801422
0.22949697 0.12480579 0.68100005 0.3352173 0.04694489 -0.94097048 0.023152491
0.23134141 0.1248024 0.68100005 0.34335178 0.035996318 -0.93851686 0.024051558
0.23421329 0.12534893 0.68400002 0.34706727 0.01782942 -0.93767077 0.025050808
0.23675653 0.12571236 0.68600005 0.3527284 0.0022718054 -0.93572295 0.025306446
0.23931086 0.12607594 0.68800002 0.37250692 -0.011751994 -0.92795497 0.026663462
0.24187629 0.12643969 0.69000006 0.37701112 -0.028174916 -0.92578012 0.027823338
0.24268652 0.12588739 0.68700004 0.38734823 -0.034987666 -0.9212693 0.026447009
0.061550625 0.15143533 0.83500004 -0.85836387 0.48009562 -0.18088567 0.035268478
0.063828282 0.15143111 0.83500004 -0.85773206 0.48048827 -0.18282995 0.03527518
0.066105761 0.15142678 0.83500004 -0.86038977 0.48135635 -0.16740818 0.039270561
0.068137355 0.15087825 0.83200002 -0.85754585 0.48053712 -0.18357334 0.035328679
0.070439644 0.14179772 0.78200006 -0.77608538 0.49025923 -0.39665768 0.0036509815
0.072107591 0.14088644 0.77700001 -0.76901323 0.49755573 -0.40131903 0.003425234
0.073843613 0.14015639 0.77300006 -0.76636726 0.5073691 -0.39402768 0.0025295138
0.07565587 0.13960761 0.77000004 -0.76005119 0.51247197 -0.39961815 0.0023974115
0.077148624 0.13851482 0.76400006 -0.74557137 0.52749985 -0.40726784 0.0020119927
0.07881587 0.1377846 0.76000005 -0.7348336 0.53446215 -0.41757607 0.0018718237
0.080673963 0.13741688 0.75800002 -0.72370923 0.541215 -0.42817211 0.0017226033
0.082193471 0.13650526 0.75300002 -0.70899928 0.55212945 -0.43871748 0.001562766
0.083797395 0.13577488 0.74900001 -0.70058864 0.56019604 -0.44199088 0.0011505436
0.08526469 0.13486315 0.74400002 -0.69410723 0.56855464 -0.44154376 0.0011995494
0.08705651 0.13449521 0.74200004 -0.68974596 0.57402098 -0.44130537 0.0012006414
0.088717155 0.13394594 0.73900002 -0.68646896 0.58042133 -0.43803146 0.0011604398
0.090361238 0.13339663 0.73600006 -0.68480325 0.58672041 -0.43220785 0.0011497929
0.092114232 0.13302849 0.73400003 -0.68227816 0.59159994 -0.42954177 0.0011764383
0.093984343 0.13284153 0.73300004 -0.68095452 0.59453726 -0.42758203 0.0012965187
0.09545593 0.13211083 0.72900003 -0.67870337 0.60172886 -0.42105129 0.0013427145
0.096771851 0.1311989 0.72400004 -0.67756218 0.60699999 -0.41528356 0.0013121102
0.098060302 0.13028695 0.71900004 -0.67761493 0.61090422 -0.40943143 0.0010797149
0.099599533 0.12973741 0.71600002 -0.67617136 0.61417866 -0.40691134 0.0010484268
0.10126401 0.12936904 0.71400005 -0.67302817 0.61784351 -0.40657404 0.00090264127
0.1027728 0.12881942 0.71100003 -0.67024761 0.61998105 -0.40791133 0.00087932468
0.10426506 0.12826979 0.708 -0.66907424 0.61956358 -0.41046402 0.0007557206
0.10544076 0.12735781 0.70300001 -0.66722119 0.61796844 -0.41584945 0.00086366356
0.10689446 0.12680818 0.70000005 -0.66418761 0.61540216 -0.42442322 0.0011158698
0.10833158 0.12625852 0.69700003 -0.65796304 0.61070269 -0.44059828 0.001604437
0.11006845 0.12607113 0.69600004 -0.65372664 0.60710675 -0.4517332 0.0017360992
0.11131705 0.12534031 0.69200003 -0.63983113 0.59166431 -0.49045852 0.0032659078
0.11270723 0.12479063 0.68900001 -0.62596816 0.57698351 -0.52464634 0.005448943
0.11408088 0.12424096 0.68600005 -0.61026073 0.56146991 -0.55886799 0.0085095493
0.11543798 0.12369128 0.68300003 -0.58915359 0.53588313 -0.60475385 0.012413071
0.11660681 0.12296052 0.67900002 -0.55985284 0.50549757 -0.65653408 0.015743844
0.11810257 0.12259196 0.67700005 -0.53754318 0.4804225 -0.69299465 0.017319622
0.11958719 0.12222335 0.67500001 -0.5149377 0.45609322 -0.72582233 0.019273067
0.12124064 0.12203585 0.67400002 -0.49501207 0.43661433 -0.75121963 0.021176966
0.12307101 0.12202937 0.67400002 -0.47213328 0.42009175 -0.77499235 0.023435215
0.12471585 0.12184183 0.67300004 -0.44777438 0.3991496 -0.800111 0.026114373
0.12635501 0.12165424 0.67200005 -0.42142349 0.3725546 -0.82680434 0.026467307
0.12817925 0.12164768 0.67200005 -0.39804929 0.35452437 -0.84609056 0.02705233
0.12961636 0.12127906 0.67000002 -0.36704507 0.32399139 -0.87195617 0.027724205
0.13123855 0.12109146 0.66900003 -0.3360137 0.29649606 -0.89397144 0.026265193
0.13285509 0.12090386 0.66800004 -0.30953473 0.27119502 -0.91139537 0.026615597
0.13466761 0.12089726 0.66800004 -0.27984244 0.24839732 -0.92735487 0.027558697
0.13627556 0.12070964 0.66700006 -0.24990745 0.22810501 -0.94101775 0.027646689
0.13767087 0.12034106 0.66500002 -0.21190384 0.2051767 -0.95550996 0.025089834
0.13926485 0.12015349 0.66400003 -0.18348843 0.1821472 -0.96599919 0.02310076
0.14127807 0.12032779 0.66500002 -0.16578794 0.1669776 -0.97192222 0.02429823
0.14351171 0.12068303 0.66700006 -0.14574358 0.15268871 -0.97746867 0.024424203
