# .PCD v0.7 - Point Cloud Data file format
VERSION 0.7
FIELDS x y z
SIZE 4 4 4
TYPE F F F
COUNT 1 1 1
WIDTH 1423
HEIGHT 1
VIEWPOINT 0 0 0 1 0 0 0
POINTS 1423
DATA ascii
0.14846522 -0.24348328 0.52400005
0.1499037 -0.24350113 0.52400005
0.15134268 -0.24351938 0.52400005
0.15249053 -0.24307325 0.523
0.15363342 -0.24262755 0.52200001
0.15506835 -0.24264701 0.52200001
0.15680361 -0.24313179 0.523
0.15763719 -0.24222237 0.52100003
0.15846035 -0.24131323 0.51900005
0.1601972 -0.24179937 0.52000004
0.16162933 -0.24182104 0.52000004
0.16368917 -0.24277334 0.52200001
0.16354631 -0.24047042 0.51700002
0.16497192 -0.24049339 0.51700002
0.16575444 -0.23958646 0.51500005
0.16814961 -0.24100612 0.51800001
0.16925253 -0.24056537 0.51700002
0.17068069 -0.24059041 0.51700002
0.17177662 -0.24015056 0.51600003
0.17353904 -0.24064206 0.51700002
0.17530768 -0.24113418 0.51800001
0.17571782 -0.23976476 0.51500005
0.17645599 -0.23886116 0.51300001
0.17787735 -0.23888931 0.51300001
0.1799985 -0.23984946 0.51500005
0.18142693 -0.23987883 0.51500005
0.18214601 -0.2389771 0.51300001
0.18357053 -0.23900759 0.51300001
0.18463525 -0.23857272 0.51200002
0.18642204 -0.23907037 0.51300001
0.18711673 -0.23817056 0.51100004
0.18890806 -0.23866953 0.51200002
0.18996234 -0.23823687 0.51100004
0.1921356 -0.23920357 0.51300001
0.193189 -0.2387722 0.51200002
0.19499797 -0.23927416 0.51300001
0.19604769 -0.23884399 0.51200002
0.19786426 -0.23934749 0.51300001
0.19891044 -0.23891857 0.51200002
0.19956076 -0.23802353 0.51000005
0.20020093 -0.23712888 0.50800002
0.20241861 -0.23810214 0.51000005
0.20424888 -0.23860949 0.51100004
0.20608588 -0.23911776 0.51200002
0.20590302 -0.23729144 0.50800002
0.20651516 -0.23639961 0.50600004
0.20793912 -0.23644277 0.50600004
0.20853673 -0.235552 0.50400001
0.20995747 -0.23559657 0.50400001
0.21137948 -0.23564199 0.50400001
0.21280275 -0.23568819 0.50400001
0.21507746 -0.23667073 0.50600004
0.2160811 -0.23625097 0.505
0.21923405 -0.23817152 0.509
0.22111043 -0.23868968 0.51000005
0.22473943 -0.2410814 0.51500005
0.22664136 -0.24160214 0.51600003
0.22899255 -0.24259233 0.51800001
0.2304668 -0.24264705 0.51800001
0.23328592 -0.24410835 0.52100003
0.23387066 -0.24322805 0.51900005
0.23535255 -0.24328579 0.51900005
0.23683608 -0.24334453 0.51900005
0.23969883 -0.24481122 0.52200001
0.24258052 -0.24627967 0.52500004
0.2440864 -0.24634221 0.52500004
0.24652965 -0.24734451 0.52700001
0.24757425 -0.24693999 0.52600002
0.24814141 -0.24606672 0.52400005
0.2482225 -0.24472432 0.52100003
0.24876752 -0.24385215 0.51900005
0.25123176 -0.2448605 0.52100003
0.25370955 -0.24587049 0.523
0.25571302 -0.24641201 0.52400005
0.25772434 -0.24695496 0.52500004
0.26023737 -0.24796991 0.52700001
0.26276425 -0.24898669 0.52900004
0.26530492 -0.25000525 0.53100002
0.26534683 -0.24867088 0.528
0.26587892 -0.24780801 0.52600002
0.26589328 -0.24647452 0.523
0.2684491 -0.24749857 0.52500004
0.26999044 -0.24758141 0.52500004
0.27101707 -0.24719383 0.52400005
0.27047983 -0.24539159 0.52000004
0.27201393 -0.24547768 0.52000004
0.27407664 -0.24603739 0.52100003
0.27667686 -0.24707127 0.523
0.27875972 -0.24763471 0.52400005
0.28031617 -0.24772719 0.52400005
0.2840271 -0.24971285 0.528
0.28668296 -0.25075528 0.53000003
0.28935358 -0.25179994 0.53200001
0.28930467 -0.25047949 0.52900004
0.28979069 -0.2496331 0.52700001
0.29026774 -0.24878758 0.52500004
0.29184768 -0.24889101 0.52500004
0.29343069 -0.24899608 0.52500004
0.29445496 -0.2486283 0.52400005
0.2960414 -0.2487365 0.52400005
0.29819912 -0.24932125 0.52500004
0.29979521 -0.24943306 0.52500004
0.29967251 -0.24812062 0.52200001
0.29895779 -0.24633309 0.51800001
0.29938263 -0.24549712 0.51600003
0.30038187 -0.24513802 0.51500005
0.30255127 -0.24573271 0.51600003
0.3035517 -0.2453768 0.51500005
0.30514213 -0.24549896 0.51500005
0.30733198 -0.24609993 0.51600003
0.31072932 -0.2476577 0.51900005
0.31174192 -0.24730913 0.51800001
0.31275237 -0.24696209 0.51700002
0.31072035 -0.24422684 0.51100004
0.30987722 -0.24244688 0.50700003
0.31147045 -0.24258071 0.50700003
0.31430289 -0.24367401 0.509
0.31777292 -0.24524952 0.51200002
0.31877106 -0.24491167 0.51100004
0.31788632 -0.24313673 0.50700003
0.32147217 -0.24261552 0.505
0.32885295 -0.24709247 0.514
0.32986638 -0.2467669 0.51300001
0.33152455 -0.24692437 0.51300001
0.3338373 -0.24756587 0.514
0.33485621 -0.2472465 0.51300001
0.33259383 -0.24451753 0.50700003
0.33491251 -0.24516541 0.50800002
0.33127996 -0.24146996 0.5
0.33825514 -0.24343327 0.50300002
0.34263209 -0.24554719 0.50700003
0.34568325 -0.24669726 0.509
0.34875375 -0.24785154 0.51100004
0.34978625 -0.24755383 0.51000005
0.35150734 -0.24774393 0.51000005
0.35323474 -0.24793687 0.51000005
0.35218444 -0.24618657 0.50600004
0.3560093 -0.2478445 0.509
0.36688983 -0.254381 0.52200001
0.37292242 -0.25751683 0.528
0.37261569 -0.25626755 0.52500004
0.37800106 -0.25892726 0.53000003
0.37697828 -0.25719374 0.52600002
0.38313678 -0.26035398 0.53200001
0.38138428 -0.25813469 0.52700001
0.38542202 -0.25983649 0.53000003
0.38364273 -0.25761876 0.52500004
0.37596145 -0.25147069 0.51200002
-0.35496441 -0.28862578 0.60200006
-0.34841496 -0.28464943 0.59400004
-0.34483647 -0.28307387 0.59100002
-0.33953947 -0.2800656 0.58500004
-0.31984955 -0.26509911 0.55400002
-0.30954179 -0.25780123 0.53900003
-0.28961539 -0.24720578 0.51800001
-0.29138836 -0.24996276 0.52400005
-0.26573822 -0.23995721 0.505
-0.26535493 -0.24216017 0.51000005
-0.25977835 -0.23962022 0.505
-0.25829437 -0.23953928 0.505
-0.25735587 -0.24127738 0.509
-0.25435907 -0.23977807 0.50600004
-0.25188175 -0.2387546 0.50400001
-0.25041196 -0.23868011 0.50400001
-0.25042608 -0.2400271 0.50700003
-0.24993385 -0.24090114 0.509
-0.24894394 -0.24130265 0.51000005
-0.24455367 -0.23839401 0.50400001
-0.2411648 -0.23643391 0.5
-0.23437651 -0.23793672 0.50400001
-0.23292984 -0.23787564 0.50400001
-0.23194416 -0.23828745 0.505
-0.22958519 -0.23728484 0.50300002
-0.23086785 -0.24005666 0.509
-0.2307657 -0.24141358 0.51200002
-0.23154373 -0.24371362 0.51700002
-0.23229486 -0.24601352 0.52200001
-0.23257691 -0.24784215 0.52600002
-0.23151979 -0.24825762 0.52700001
-0.23002206 -0.24820291 0.52700001
-0.22895947 -0.24862002 0.528
-0.22832349 -0.24950862 0.53000003
-0.22639374 -0.24898575 0.52900004
-0.22319569 -0.24705224 0.52500004
-0.22128856 -0.24653184 0.52400005
-0.22106639 -0.24789402 0.52700001
-0.22041197 -0.24878629 0.52900004
-0.21850604 -0.24826837 0.528
-0.214963 -0.24587105 0.523
-0.21267401 -0.24488553 0.52100003
-0.2112083 -0.24484107 0.52100003
-0.20934118 -0.24432755 0.52000004
-0.20788063 -0.24428473 0.52000004
-0.20523036 -0.24283361 0.51700002
-0.20496303 -0.24420148 0.52000004
-0.20350589 -0.24416098 0.52000004
-0.20360409 -0.2459991 0.52400005
-0.20175213 -0.24549037 0.523
-0.20067284 -0.24592122 0.52400005
-0.19654755 -0.24259865 0.51700002
-0.19472666 -0.24209283 0.51600003
-0.19403608 -0.24299514 0.51800001
-0.19370712 -0.2443669 0.52100003
-0.19151732 -0.24339411 0.51900005
-0.18933958 -0.24242224 0.51700002
-0.18790077 -0.24238895 0.51700002
-0.1868235 -0.24282509 0.51800001
-0.18574156 -0.24326175 0.51900005
-0.18429978 -0.24323025 0.51900005
-0.18321116 -0.24366795 0.52000004
-0.18037005 -0.24176347 0.51600003
-0.17928581 -0.24220242 0.51700002
-0.1775088 -0.24170505 0.51600003
-0.17642057 -0.24214508 0.51700002
-0.17431213 -0.24118064 0.51500005
-0.17322259 -0.24162172 0.51600003
-0.17246115 -0.24253149 0.51800001
-0.17069884 -0.24203712 0.51700002
-0.16894276 -0.2415434 0.51600003
-0.1681668 -0.24245445 0.51800001
-0.16705854 -0.24289787 0.51900005
-0.16562629 -0.2428737 0.51900005
-0.16419467 -0.24285008 0.51900005
-0.16245003 -0.24235903 0.51800001
-0.16102235 -0.24233641 0.51800001
-0.15897907 -0.24137869 0.51600003
-0.15786341 -0.24182485 0.51700002
-0.15613763 -0.24133603 0.51600003
-0.15501754 -0.24178304 0.51700002
-0.15418959 -0.24269806 0.51900005
-0.15335113 -0.24361335 0.52100003
-0.15162742 -0.2431263 0.52000004
-0.14962085 -0.24217221 0.51800001
-0.14848407 -0.24262118 0.51900005
-0.14705889 -0.24260303 0.51900005
-0.14591478 -0.24305268 0.52000004
-0.14476562 -0.24350266 0.52100003
-0.14388649 -0.2444203 0.523
-0.14326927 -0.24580556 0.52600002
-0.14236632 -0.24672371 0.528
-0.14171973 -0.24810937 0.53100002
-0.13947219 -0.24669194 0.528
-0.13671865 -0.24434063 0.523
-0.13295819 -0.24012133 0.514
-0.13103895 -0.23917288 0.51200002
-0.12938417 -0.23869194 0.51100004
-0.12873705 -0.2400797 0.514
-0.12683524 -0.23913236 0.51200002
-0.12592465 -0.24005358 0.514
-0.12476119 -0.24050803 0.51500005
-0.1243111 -0.24236366 0.51900005
-0.12265553 -0.2418846 0.51800001
-0.12123975 -0.24187286 0.51800001
-0.11936163 -0.24092758 0.51600003
-0.11818047 -0.24138333 0.51700002
-0.11654241 -0.2409056 0.51600003
-0.11557943 -0.24182872 0.51800001
-0.11438543 -0.24228527 0.51900005
-0.11318617 -0.242742 0.52000004
-0.11155184 -0.24226537 0.51900005
-0.1101354 -0.24225582 0.51900005
-0.10913814 -0.24318002 0.52100003
-0.10813017 -0.24410439 0.523
-0.10711154 -0.24502897 0.52500004
-0.10648476 -0.24688712 0.52900004
-0.10504213 -0.24687864 0.52900004
-0.10379551 -0.24733703 0.53000003
-0.10235053 -0.24732901 0.53000003
-0.10128649 -0.24825443 0.53200001
-0.10021175 -0.24918009 0.53400004
-0.098571472 -0.24870603 0.53300005
-0.097119011 -0.24869882 0.53300005
-0.095666729 -0.2486918 0.53300005
-0.094037823 -0.24821839 0.53200001
-0.092936642 -0.24914493 0.53400004
-0.091653407 -0.24960507 0.53500003
-0.090027682 -0.24913228 0.53400004
-0.088573411 -0.24912623 0.53400004
-0.087119281 -0.24912035 0.53400004
-0.085825682 -0.24958117 0.53500003
-0.084369086 -0.24957564 0.53500003
-0.083222538 -0.25050321 0.537
-0.082065247 -0.25143099 0.53900003
-0.080598101 -0.25142592 0.53900003
-0.079277873 -0.25188744 0.54000002
-0.077664144 -0.25141627 0.53900003
-0.076480053 -0.25234452 0.54100001
-0.075978398 -0.2556051 0.54800004
-0.076798014 -0.26352993 0.565
-0.077525206 -0.27145466 0.58200002
-0.07750757 -0.27704722 0.59400004
-0.077041447 -0.28124058 0.60300004
-0.076401383 -0.28496751 0.611
-0.075473256 -0.28776175 0.61700004
-0.074512564 -0.29055598 0.62300003
-0.07305178 -0.29148486 0.625
-0.071694367 -0.29288018 0.62800002
-0.070209265 -0.29380924 0.63000005
-0.068822071 -0.29520476 0.63300002
-0.067206636 -0.29566768 0.634
-0.065585837 -0.29613075 0.63500005
-0.063859083 -0.29612759 0.63500005
-0.062132396 -0.29612449 0.63500005
-0.060120385 -0.29472253 0.63200003
-0.058401972 -0.2947197 0.63200003
-0.056773305 -0.2951833 0.63300002
-0.055139251 -0.29564703 0.634
-0.053331308 -0.29517823 0.63300002
-0.051447317 -0.29424322 0.63100004
-0.049731873 -0.29424095 0.63100004
-0.04801647 -0.29423878 0.63100004
-0.046227735 -0.29377037 0.63000005
-0.044585787 -0.29423469 0.63100004
-0.042870503 -0.29423282 0.63100004
-0.041024804 -0.29329839 0.62900001
-0.039190017 -0.29236409 0.62700003
-0.03742592 -0.29189622 0.62600005
-0.035724349 -0.29189467 0.62600005
-0.033914112 -0.29096064 0.62400001
-0.032218039 -0.2909593 0.62400001
-0.030521983 -0.29095796 0.62400001
-0.02877976 -0.29049048 0.62300003
-0.027129948 -0.29095566 0.62400001
-0.025393199 -0.29048833 0.62300003
-0.023737986 -0.29095361 0.62400001
-0.022006711 -0.29048645 0.62300003
-0.020346098 -0.29095188 0.62400001
-0.018620282 -0.29048482 0.62300003
-0.01695426 -0.29095042 0.62400001
-0.015258363 -0.29094979 0.62400001
-0.013584208 -0.29141548 0.625
-0.011885611 -0.29141498 0.625
-0.010203321 -0.29188085 0.62600005
-0.0084884409 -0.29141423 0.625
-0.006789864 -0.2914139 0.625
-0.0050912932 -0.29141369 0.625
-0.0033927248 -0.29141355 0.625
-0.0016941587 -0.29141343 0.625
4.4131166e-06 -0.29187965 0.62600005
0.0017084203 -0.29234597 0.62700003
0.0034178644 -0.29281232 0.62800002
0.005132746 -0.29327875 0.62900001
0.0068530664 -0.29374525 0.63000005
0.0085516348 -0.29327929 0.62900001
0.010261089 -0.29327962 0.62900001
0.011970548 -0.29328007 0.62900001
0.013723515 -0.29421309 0.63100004
0.01541396 -0.2937474 0.63000005
0.017153351 -0.29421428 0.63100004
0.018868288 -0.29421502 0.63100004
0.020583237 -0.2942158 0.63100004
0.02222752 -0.29328406 0.62900001
0.023860956 -0.29235247 0.62700003
0.02548353 -0.29142088 0.625
0.027269222 -0.29235449 0.62700003
0.028880965 -0.29142308 0.625
0.029796874 -0.28396383 0.60900003
0.031193929 -0.28163368 0.60400003
0.033379279 -0.28629783 0.61400002
0.035961505 -0.29375982 0.63000005
0.037733745 -0.29422766 0.63100004
0.039386418 -0.29376301 0.63000005
0.041033674 -0.29329839 0.62900001
0.04281145 -0.29376653 0.63000005
0.044665359 -0.29470098 0.63200003
0.046236619 -0.29377037 0.63000005
0.047873147 -0.29330614 0.62900001
0.049583111 -0.29330832 0.62900001
0.051537763 -0.29470953 0.63200003
0.053255972 -0.29471192 0.63200003
0.054974221 -0.29471442 0.63200003
0.056692529 -0.29471701 0.63200003
0.05841089 -0.29471973 0.63200003
0.059939016 -0.29378986 0.63000005
0.061554186 -0.29332647 0.62900001
0.063264556 -0.29332951 0.62900001
0.064768389 -0.29239997 0.62700003
0.066367432 -0.2919369 0.62600005
0.068069845 -0.2919403 0.62600005
0.069772325 -0.29194382 0.62600005
0.071474873 -0.29194748 0.62600005
0.073294394 -0.29241762 0.62700003
0.074999824 -0.29242158 0.62700003
0.076582998 -0.29195926 0.62600005
0.078285873 -0.29196346 0.62600005
0.07986106 -0.2915014 0.625
0.081561394 -0.29150593 0.625
0.08326184 -0.29151058 0.625
0.085234255 -0.29244828 0.62700003
0.086801685 -0.29198685 0.62600005
0.088505164 -0.29199207 0.62600005
0.090208739 -0.2919974 0.62600005
0.092059277 -0.29246935 0.62700003
0.093915366 -0.29294154 0.62800002
0.09532024 -0.29201451 0.62600005
0.09671434 -0.2910876 0.62400001
0.09872856 -0.29202688 0.62600005
0.10075378 -0.29296634 0.62800002
0.10246375 -0.29297301 0.62800002
0.10417385 -0.29297993 0.62800002
0.10588412 -0.29298705 0.62800002
0.10793722 -0.29392752 0.63000005
0.10965328 -0.29393509 0.63000005
0.11154626 -0.29440945 0.63100004
0.11326539 -0.2944175 0.63100004
0.11516694 -0.29489246 0.63200003
0.11725907 -0.29583421 0.634
0.11917464 -0.29630971 0.63500005
0.12109587 -0.29678547 0.63600004
0.1226365 -0.29632819 0.63500005
0.12436777 -0.29633784 0.63500005
0.12609924 -0.29634774 0.63500005
0.12762965 -0.29589123 0.634
0.12895083 -0.29496828 0.63200003
0.13026135 -0.29404554 0.63000005
0.13198018 -0.2940565 0.63000005
0.13369928 -0.2940678 0.63000005
0.13498875 -0.29314578 0.62800002
0.13648528 -0.29269087 0.62700003
0.13819705 -0.29270306 0.62700003
0.1399091 -0.29271555 0.62700003
0.14094384 -0.29132777 0.62400001
0.14219113 -0.29040709 0.62200004
0.14296512 -0.28855285 0.61800003
0.14418575 -0.28763267 0.61600006
0.14444855 -0.28484488 0.61000001
0.14443938 -0.28159022 0.60300004
0.14293866 -0.27553353 0.59000003
0.13940714 -0.26574033 0.56900001
0.1355134 -0.25547943 0.54700005
0.13350341 -0.24895433 0.53300005
0.13420245 -0.24756704 0.53000003
0.13514139 -0.24664707 0.528
0.13632843 -0.24619454 0.52700001
0.13724896 -0.24527511 0.52500004
0.13815886 -0.24435589 0.523
0.13959202 -0.24437146 0.523
0.14102559 -0.24438739 0.523
0.14245957 -0.24440372 0.523
0.14334369 -0.2434857 0.52100003
0.14449516 -0.24303538 0.52000004
0.14536092 -0.24211793 0.51800001
0.14649954 -0.24166821 0.51700002
0.14763312 -0.24121882 0.51600003
0.14876166 -0.24076979 0.51500005
0.14988519 -0.24032108 0.514
0.15159246 -0.24080795 0.51500005
0.15330568 -0.24129528 0.51600003
0.15472506 -0.24131547 0.51600003
0.15553975 -0.2404007 0.514
0.156344 -0.23948625 0.51200002
0.15806212 -0.23997544 0.51300001
0.15916456 -0.23952955 0.51200002
0.16088931 -0.24001977 0.51300001
0.16103828 -0.23817098 0.509
0.16244231 -0.23819417 0.509
0.16384697 -0.23821785 0.509
0.16590157 -0.23917817 0.51100004
0.16764046 -0.23967108 0.51200002
0.16872515 -0.23922834 0.51100004
0.17013794 -0.23925419 0.51100004
0.17121568 -0.23881231 0.51000005
0.17296559 -0.23930754 0.51100004
0.17335671 -0.23792994 0.50800002
0.17476402 -0.23795782 0.50800002
0.1754785 -0.23704936 0.50600004
0.17688179 -0.23707828 0.50600004
0.17828584 -0.2371078 0.50600004
0.17969069 -0.23713791 0.50600004
0.18145426 -0.23763733 0.50700003
0.18250287 -0.23719998 0.50600004
0.18427366 -0.23770075 0.50700003
0.18531838 -0.2372645 0.50600004
0.18672746 -0.23729771 0.50600004
0.18739381 -0.23639348 0.50400001
0.1895484 -0.23736612 0.50600004
0.19058283 -0.23693211 0.505
0.19199282 -0.23696792 0.505
0.19378679 -0.23747373 0.50600004
0.19558737 -0.23798035 0.50700003
0.19700597 -0.23801839 0.50700003
0.19803423 -0.2375876 0.50600004
0.19866379 -0.23668778 0.50400001
0.20007716 -0.23672774 0.50400001
0.20189141 -0.23723826 0.505
0.20371245 -0.23774971 0.50600004
0.20472938 -0.23732215 0.505
0.20451726 -0.23548518 0.50100005
0.20592792 -0.23552874 0.50100005
0.20692591 -0.23510286 0.5
0.20958622 -0.23655884 0.50300002
0.21058674 -0.23613459 0.50200003
0.21200518 -0.2361815 0.50200003
0.2138501 -0.23669982 0.50300002
0.21484603 -0.23627785 0.50200003
0.21713012 -0.23726882 0.50400001
0.21899329 -0.23779024 0.505
0.22217302 -0.23972566 0.509
0.2249376 -0.24119177 0.51200002
0.22683638 -0.24171704 0.51300001
0.22829735 -0.2417722 0.51300001
0.23020776 -0.24229971 0.514
0.23167473 -0.2423569 0.514
0.23405053 -0.24335834 0.51600003
0.23598291 -0.2438895 0.51700002
0.23746341 -0.24395005 0.51700002
0.23987 -0.24495563 0.51900005
0.24089468 -0.2445464 0.51800001
0.2423833 -0.24461021 0.51800001
0.24387376 -0.24467513 0.51800001
0.24536608 -0.24474114 0.51800001
0.24638374 -0.24433567 0.51700002
0.24739753 -0.24393106 0.51600003
0.24937218 -0.24447304 0.51700002
0.2513546 -0.24501644 0.51800001
0.25285673 -0.24508816 0.51800001
0.25386986 -0.24468778 0.51700002
0.25636119 -0.24570861 0.51900005
0.25936311 -0.2472048 0.52200001
0.26188499 -0.24822941 0.52400005
0.26190725 -0.24688652 0.52100003
0.26191422 -0.245544 0.51800001
0.26292312 -0.24515021 0.51700002
0.26392847 -0.24475741 0.51600003
0.26801687 -0.2472126 0.52100003
0.26903296 -0.2468228 0.52000004
0.26900491 -0.24548438 0.51700002
0.26791522 -0.24319635 0.51200002
0.26942959 -0.24328382 0.51200002
0.27253416 -0.24479872 0.51500005
0.27565914 -0.24631608 0.51800001
0.27773443 -0.24688461 0.51900005
0.2803565 -0.24793081 0.52100003
0.2819111 -0.24802715 0.52100003
0.28510085 -0.24955377 0.52400005
0.28612319 -0.24917732 0.523
0.2860423 -0.24784881 0.52000004
0.2864995 -0.24699752 0.51800001
0.28861612 -0.24757817 0.51900005
0.28962353 -0.24720633 0.51800001
0.29006597 -0.24635835 0.51600003
0.29049948 -0.24551114 0.514
0.29262877 -0.2460984 0.51500005
0.29419622 -0.24620971 0.51500005
0.2963413 -0.24680102 0.51600003
0.29676387 -0.24595895 0.514
0.29833856 -0.24607532 0.514
0.29991677 -0.24619345 0.514
0.30149862 -0.24631342 0.514
0.30072552 -0.24451748 0.51000005
0.30052412 -0.24320115 0.50700003
0.30269134 -0.24380498 0.50800002
0.30726439 -0.2463319 0.51300001
0.30826008 -0.24598069 0.51200002
0.30743796 -0.24418892 0.50800002
0.30537823 -0.24143519 0.50200003
0.30573073 -0.2406051 0.5
0.30853322 -0.24170193 0.50200003
0.31073475 -0.24232012 0.50300002
0.31294683 -0.24294092 0.50400001
0.31392148 -0.24259982 0.50300002
0.31426692 -0.24177769 0.50100005
0.32098565 -0.24366863 0.50400001
0.32516772 -0.24575594 0.50800002
0.32552055 -0.24494356 0.50600004
0.32521874 -0.24364787 0.50300002
0.32945117 -0.24574561 0.50700003
0.33175555 -0.24639323 0.50800002
0.33210269 -0.24558793 0.50600004
0.33112282 -0.2438124 0.50200003
0.34416127 -0.24602176 0.50400001
0.3431139 -0.2442553 0.5
0.36217645 -0.25258523 0.51500005
0.36889714 -0.25623074 0.52200001
0.36786145 -0.25448111 0.51800001
0.36894605 -0.25420636 0.51700002
0.37935334 -0.26033157 0.52900004
0.38120461 -0.26055977 0.52900004
0.38740817 -0.26374921 0.53500003
0.38274696 -0.25954592 0.52600002
0.37031767 -0.24914792 0.50400001
-0.35333955 -0.28897917 0.59900004
-0.34562171 -0.28401321 0.58900005
-0.34380695 -0.28387374 0.58900005
-0.33619002 -0.27891916 0.57900006
-0.32344031 -0.26963776 0.56
-0.30678931 -0.25699809 0.53400004
-0.30172998 -0.25399289 0.528
-0.28815705 -0.2486316 0.51800001
-0.28327537 -0.24564777 0.51200002
-0.26722676 -0.24017957 0.50200003
-0.2652061 -0.23961142 0.50100005
-0.26648158 -0.24460582 0.51200002
-0.26497087 -0.24451977 0.51200002
-0.25934598 -0.24061577 0.50400001
-0.25581712 -0.23862472 0.5
-0.24510957 -0.2389708 0.50200003
-0.24365272 -0.23890015 0.50200003
-0.24026534 -0.2382867 0.50100005
-0.23881721 -0.2382196 0.50100005
-0.23737097 -0.23815361 0.50100005
-0.23401591 -0.23754974 0.5
-0.23350829 -0.23843704 0.50200003
-0.23200433 -0.23973854 0.505
-0.2296441 -0.23872915 0.50300002
-0.23001911 -0.24056822 0.50700003
-0.22766785 -0.23956104 0.505
-0.22846548 -0.2418752 0.51000005
-0.23012638 -0.24513751 0.51700002
-0.22997984 -0.2465031 0.52000004
-0.23025723 -0.24834293 0.52400005
-0.22876707 -0.24828754 0.52400005
-0.22814588 -0.24918054 0.52600002
-0.22665304 -0.24912684 0.52600002
-0.22516169 -0.24907409 0.52600002
-0.22154558 -0.24665511 0.52100003
-0.21880399 -0.24518465 0.51800001
-0.21901777 -0.24702831 0.52200001
-0.21921027 -0.24887207 0.52600002
-0.21731187 -0.24835074 0.52500004
-0.21377599 -0.24593858 0.52000004
-0.21026959 -0.24352817 0.51500005
-0.2092254 -0.24395613 0.51600003
-0.20817679 -0.24438474 0.51700002
-0.2067239 -0.24434136 0.51700002
-0.20368397 -0.24240863 0.51300001
-0.20263885 -0.24283959 0.514
-0.2023721 -0.24421591 0.51700002
-0.2028669 -0.24653706 0.52200001
-0.20101975 -0.24602489 0.52100003
-0.19917926 -0.24551362 0.52000004
-0.19544418 -0.24264285 0.514
-0.19363092 -0.24213369 0.51300001
-0.19257349 -0.24256918 0.514
-0.19225523 -0.24394898 0.51700002
-0.18970668 -0.24249828 0.514
-0.18790837 -0.2419921 0.51300001
-0.18648005 -0.24195836 0.51300001
-0.18469189 -0.24145372 0.51200002
-0.18326809 -0.24142131 0.51200002
-0.18184513 -0.24138956 0.51200002
-0.18148021 -0.24277264 0.51500005
-0.17865212 -0.24085656 0.51100004
-0.17792806 -0.24176924 0.51300001
-0.1768496 -0.24221106 0.514
-0.17644899 -0.2435957 0.51700002
-0.17400132 -0.24215388 0.514
-0.17190683 -0.24118404 0.51200002
-0.17082299 -0.24162796 0.51300001
-0.16907394 -0.24113046 0.51200002
-0.16700365 -0.24016267 0.51000005
-0.16591911 -0.24060817 0.51100004
-0.16515166 -0.2415249 0.51300001
-0.16469295 -0.24291272 0.51600003
-0.16295271 -0.24241793 0.51500005
-0.16184586 -0.24286506 0.51600003
-0.16011234 -0.24237137 0.51500005
-0.15776861 -0.24093705 0.51200002
-0.15605277 -0.24044456 0.51100004
-0.15404032 -0.2394821 0.509
-0.15323898 -0.2404021 0.51100004
-0.15242715 -0.24132241 0.51300001
-0.15219361 -0.24318375 0.51700002
-0.15077205 -0.24316387 0.51700002
-0.14906211 -0.24267413 0.51600003
-0.14735815 -0.24218491 0.51500005
-0.14537676 -0.24122591 0.51300001
-0.14424875 -0.24167806 0.514
-0.14283779 -0.24166037 0.514
-0.14280303 -0.24399374 0.51900005
-0.14165165 -0.24444678 0.52000004
-0.14076486 -0.24537024 0.52200001
-0.1398675 -0.24629392 0.52400005
-0.13816704 -0.24580787 0.523
-0.1349038 -0.24250247 0.51600003
-0.13167931 -0.23919782 0.509
-0.12951738 -0.2377736 0.50600004
-0.12863833 -0.23869926 0.50800002
-0.1279992 -0.24009502 0.51100004
-0.1261052 -0.23914178 0.509
-0.1244675 -0.2386588 0.50800002
-0.12307787 -0.23864596 0.50800002
-0.12288626 -0.24098217 0.51300001
-0.12148357 -0.24096984 0.51300001
-0.11937895 -0.23954873 0.51000005
-0.117291 -0.23812801 0.50700003
-0.11636277 -0.23905599 0.509
-0.11519803 -0.2395146 0.51000005
-0.11447436 -0.24091263 0.51300001
-0.11329373 -0.24137162 0.514
-0.11189019 -0.24136126 0.514
-0.11048692 -0.2413512 0.514
-0.10887165 -0.24087188 0.51300001
-0.10789055 -0.24180137 0.51500005
-0.10710551 -0.24320053 0.51800001
-0.10671241 -0.24553882 0.523
-0.10568831 -0.2464688 0.52500004
-0.10445492 -0.24692947 0.52600002
-0.10262869 -0.24598207 0.52400005
-0.10139297 -0.2464432 0.52500004
-0.10034238 -0.24737392 0.52700001
-0.099281073 -0.24830483 0.52900004
-0.097839147 -0.24829715 0.52900004
-0.096215136 -0.24782032 0.528
-0.094596773 -0.24734372 0.52700001
-0.093337551 -0.24780603 0.528
-0.092073061 -0.24826851 0.52900004
-0.090803258 -0.24873118 0.53000003
-0.089022353 -0.24778612 0.528
-0.08758422 -0.24777985 0.528
-0.08614625 -0.24777377 0.528
-0.085189693 -0.24917567 0.53100002
-0.083743826 -0.24916993 0.53100002
-0.082608029 -0.25010285 0.53300005
-0.081156932 -0.25009739 0.53300005
-0.079705968 -0.25009215 0.53300005
-0.078255102 -0.25008705 0.53300005
-0.076948442 -0.25055131 0.53400004
-0.075777821 -0.25148487 0.53600001
-0.075289689 -0.2547645 0.54300004
-0.075851038 -0.26179752 0.55800003
-0.076597258 -0.26976874 0.57500005
-0.076859601 -0.27633241 0.58900005
-0.076406986 -0.28055024 0.59800005
-0.075905494 -0.2847681 0.60700005
-0.074988134 -0.28757858 0.61300004
-0.074157819 -0.29085824 0.62
-0.072821967 -0.29226148 0.62300003
-0.071584038 -0.29413396 0.62700003
-0.070101522 -0.29506826 0.62900001
-0.068608217 -0.29600275 0.63100004
-0.066786073 -0.29553005 0.63000005
-0.06507273 -0.29552656 0.63000005
-0.063460022 -0.29599229 0.63100004
-0.061744094 -0.29598904 0.63100004
-0.059837956 -0.29504779 0.62900001
-0.058035169 -0.29457569 0.62800002
-0.056417268 -0.29504192 0.62900001
-0.054707013 -0.29503918 0.62900001
-0.052996803 -0.29503652 0.62900001
-0.051123582 -0.29409593 0.62700003
-0.04949772 -0.29456252 0.62800002
-0.047714278 -0.29409119 0.62700003
-0.04600969 -0.29408896 0.62700003
-0.044234488 -0.29361784 0.62600005
-0.042532697 -0.29361585 0.62600005
-0.040700495 -0.29267582 0.62400001
-0.038879201 -0.29173595 0.62200004
-0.037188392 -0.29173422 0.62200004
-0.035554681 -0.29220164 0.62300003
-0.033806864 -0.29173109 0.62200004
-0.032064505 -0.2912606 0.62100005
-0.030327614 -0.2907902 0.62
-0.028642377 -0.29078889 0.62
-0.027000641 -0.29125673 0.62100005
-0.025271969 -0.29078659 0.62
-0.023624839 -0.29125455 0.62100005
-0.021901637 -0.29078457 0.62
-0.020249106 -0.2912527 0.62100005
-0.018531373 -0.29078287 0.62
-0.016873436 -0.29125115 0.62100005
-0.015185618 -0.29125047 0.62100005
-0.013541285 -0.29218787 0.62300003
-0.011848052 -0.2921873 0.62300003
-0.010171129 -0.29265586 0.62400001
-0.008461616 -0.29218647 0.62300003
-0.0067684068 -0.29218617 0.62300003
-0.0050752033 -0.29218593 0.62300003
-0.0033820027 -0.29218575 0.62300003
-0.0016915153 -0.29265463 0.62400001
4.3991918e-06 -0.2926546 0.62400001
0.0017030386 -0.29312363 0.625
0.003401672 -0.29312375 0.625
0.0051084692 -0.29359293 0.62600005
0.006809826 -0.29359317 0.62600005
0.0085111884 -0.2935935 0.62600005
0.010212557 -0.29359388 0.62600005
0.011932964 -0.29406333 0.62700003
0.013637067 -0.2940639 0.62700003
0.015316712 -0.29359546 0.62600005
0.017018119 -0.29359615 0.62600005
0.018749438 -0.29406589 0.62700003
0.020453591 -0.29406673 0.62700003
0.022122417 -0.29359865 0.62600005
0.023747766 -0.29266158 0.62400001
0.025403038 -0.29219365 0.62300003
0.027096383 -0.29219475 0.62300003
0.028789753 -0.29219595 0.62300003
0.029749202 -0.28516203 0.60800004
0.031143608 -0.28281829 0.60300004
0.033217609 -0.28657183 0.611
0.035734728 -0.29360875 0.62600005
0.037436377 -0.29361036 0.62600005
0.039138064 -0.29361209 0.62600005
0.04083978 -0.29361391 0.62600005
0.042609483 -0.29408488 0.62700003
0.044313993 -0.29408687 0.62700003
0.04587175 -0.2931509 0.625
0.047570892 -0.29315308 0.625
0.049348917 -0.29362443 0.62600005
0.051132426 -0.29409593 0.62700003
0.052837137 -0.29409844 0.62700003
0.054715879 -0.29503918 0.62900001
0.056426141 -0.29504195 0.62900001
0.058136456 -0.29504481 0.62900001
0.059466235 -0.29317147 0.625
0.061165795 -0.29317456 0.625
0.062865406 -0.29317778 0.625
0.06446179 -0.29271203 0.62400001
0.066158816 -0.29271546 0.62400001
0.067638434 -0.29178089 0.62200004
0.069441624 -0.29225367 0.62300003
0.071136147 -0.29225752 0.62300003
0.072830759 -0.29226154 0.62300003
0.074645065 -0.29273477 0.62400001
0.076342568 -0.29273906 0.62400001
0.078040153 -0.2927435 0.62400001
0.07961005 -0.29227892 0.62300003
0.081174597 -0.29181451 0.62200004
0.082867049 -0.29181942 0.62200004
0.084695525 -0.29229367 0.62300003
0.086252235 -0.29182971 0.62200004
0.087944984 -0.2918351 0.62200004
0.089781977 -0.29230988 0.62300003
0.091771372 -0.29325408 0.625
0.09347266 -0.29326004 0.625
0.094869524 -0.29232776 0.62300003
0.096565649 -0.29233414 0.62300003
0.0982619 -0.29234067 0.62300003
0.10027918 -0.29328588 0.625
0.10181801 -0.29282358 0.62400001
0.10301977 -0.29142293 0.62100005
0.10386813 -0.28908387 0.61600006
0.10623143 -0.29096857 0.62
0.10861675 -0.29285365 0.62400001
0.1112008 -0.29520836 0.62900001
0.11291471 -0.29521674 0.62900001
0.11481106 -0.29569477 0.63000005
0.11671307 -0.29617301 0.63100004
0.11843305 -0.29618219 0.63100004
0.12053405 -0.29713038 0.63300002
0.12245305 -0.29760954 0.634
0.12398599 -0.29715014 0.63300002
0.1255137 -0.29669097 0.63200003
0.12703621 -0.29623204 0.63100004
0.12855351 -0.29577342 0.63000005
0.13006561 -0.295315 0.62900001
0.13178201 -0.29532635 0.62900001
0.13307421 -0.29439899 0.62700003
0.13457076 -0.29394144 0.62600005
0.13562672 -0.29254496 0.62300003
0.13732788 -0.29255751 0.62300003
0.13858303 -0.29163116 0.62100005
0.14005344 -0.29117468 0.62
0.14106147 -0.28977916 0.61700004
0.14205343 -0.28838387 0.61400002
0.14302932 -0.28698879 0.611
0.14304186 -0.2837151 0.60400003
0.14277692 -0.2799716 0.59600002
0.14053021 -0.27246991 0.58000004
0.13648114 -0.26167911 0.55700004
0.1328021 -0.25182718 0.53600001
0.13126297 -0.24620317 0.52400005
0.1321909 -0.24527764 0.52200001
0.13285227 -0.24388248 0.51900005
0.13427369 -0.24389727 0.51900005
0.13491113 -0.24250254 0.51600003
0.13685349 -0.24345796 0.51800001
0.13800637 -0.2430038 0.51700002
0.13969356 -0.24349007 0.51800001
0.14084177 -0.2430366 0.51700002
0.14226009 -0.24305359 0.51700002
0.14284511 -0.24166048 0.514
0.14397541 -0.24120796 0.51300001
0.14510067 -0.24075577 0.51200002
0.14679319 -0.24124445 0.51300001
0.14762498 -0.24032274 0.51100004
0.14873791 -0.23987162 0.51000005
0.15014026 -0.23989123 0.51000005
0.15154305 -0.23991127 0.51000005
0.15294638 -0.23993178 0.51000005
0.15374494 -0.2390117 0.50800002
0.15483846 -0.23856251 0.50700003
0.15623516 -0.23858427 0.50700003
0.15701057 -0.23766521 0.505
0.15871657 -0.23815851 0.50600004
0.15947935 -0.23724017 0.50400001
0.16087012 -0.23726372 0.50400001
0.16226146 -0.23728773 0.50400001
0.16430289 -0.23825403 0.50600004
0.16537355 -0.23780823 0.505
0.16676961 -0.23783386 0.505
0.16783334 -0.23738903 0.50400001
0.16922797 -0.23741566 0.50400001
0.17062335 -0.23744287 0.50400001
0.17201939 -0.2374706 0.50400001
0.1734162 -0.23749894 0.50400001
0.17412007 -0.23658526 0.50200003
0.17551284 -0.2366146 0.50200003
0.17690638 -0.23664455 0.50200003
0.17794555 -0.23620363 0.50100005
0.17933792 -0.23623471 0.50100005
0.1821252 -0.23629873 0.50100005
0.19471286 -0.23661911 0.50100005
0.19650786 -0.23713054 0.50200003
0.2013388 -0.23634909 0.5
0.20315057 -0.23686463 0.50100005
0.21262304 -0.23671339 0.5
0.21687607 -0.2368639 0.5
0.2204795 -0.23928499 0.505
0.22411285 -0.2417081 0.51000005
0.22644928 -0.24271102 0.51200002
0.22746323 -0.2422929 0.51100004
0.22892101 -0.24234977 0.51100004
0.22992957 -0.24193326 0.51000005
0.23138773 -0.24199201 0.51000005
0.23330408 -0.24252635 0.51100004
0.2356873 -0.2435367 0.51300001
0.23762137 -0.2440737 0.514
0.23770232 -0.24271214 0.51100004
0.2382358 -0.24182597 0.509
0.23970143 -0.24189083 0.509
0.24164276 -0.24243216 0.51000005
0.24406837 -0.24345031 0.51200002
0.24506873 -0.24304327 0.51100004
0.2465477 -0.24311286 0.51100004
0.24754331 -0.24270771 0.51000005
0.24951167 -0.24325551 0.51100004
0.25148791 -0.2438048 0.51200002
0.25446028 -0.24530824 0.51500005
0.25645819 -0.24586082 0.51600003
0.25946406 -0.2473682 0.51900005
0.25896966 -0.24554031 0.51500005
0.2604773 -0.24562021 0.51500005
0.26046109 -0.24427013 0.51200002
0.26145291 -0.24387491 0.51100004
0.26449957 -0.24539033 0.514
0.26549622 -0.24499778 0.51300001
0.26544845 -0.24365079 0.51000005
0.26433855 -0.24134827 0.505
0.26688644 -0.24239209 0.50700003
0.26944873 -0.24343801 0.509
0.2736226 -0.24592139 0.514
0.27515227 -0.24601491 0.514
0.27722305 -0.24658872 0.51500005
0.27821997 -0.2462064 0.514
0.28193516 -0.2482212 0.51800001
0.28294089 -0.24784218 0.51700002
0.28339326 -0.24698474 0.51500005
0.28494325 -0.24708769 0.51500005
0.28649628 -0.2471922 0.51500005
0.28749305 -0.24681817 0.514
0.28567523 -0.24404341 0.50800002
0.28721651 -0.24415143 0.50800002
0.2881926 -0.2437803 0.50700003
0.29088032 -0.24485359 0.509
0.2930091 -0.24544823 0.51000005
0.29456982 -0.24556358 0.51000005
0.29671472 -0.24616243 0.51100004
0.29828551 -0.24628159 0.51100004
0.29868633 -0.24543817 0.509
0.29907849 -0.24459572 0.50700003
0.29946196 -0.24375412 0.505
0.30281731 -0.2453281 0.50800002
0.30439752 -0.24545594 0.50800002
0.30477703 -0.24461891 0.50600004
0.30393711 -0.24281541 0.50200003
0.3042933 -0.2419797 0.5
0.30647624 -0.24259765 0.50100005
0.30805475 -0.2427337 0.50100005
0.31219128 -0.24266894 0.5
0.31503904 -0.24378443 0.50200003
0.32113779 -0.24520506 0.50400001
0.32404262 -0.24633308 0.50600004
0.32800052 -0.24502428 0.50200003
0.33029979 -0.24567838 0.50300002
0.33492777 -0.24489833 0.5
0.34298232 -0.24660805 0.50200003
0.3446759 -0.24679743 0.50200003
0.35183078 -0.24680027 0.5
0.35567731 -0.24848841 0.50300002
0.36310425 -0.25265422 0.51100004
0.36488137 -0.25287113 0.51100004
0.37097082 -0.25606292 0.51700002
0.38143593 -0.26223755 0.52900004
0.37822613 -0.25899893 0.52200001
0.36478114 -0.24880487 0.50100005
-0.36154157 -0.29186761 0.60000002
-0.36686161 -0.29754636 0.61200005
-0.35890153 -0.29383644 0.60500002
-0.3493548 -0.28737599 0.59200001
-0.34047994 -0.28140935 0.58000004
-0.33810687 -0.28078508 0.57900006
-0.33516318 -0.27967864 0.57700002
-0.32588008 -0.27324599 0.56400001
-0.31380686 -0.26440009 0.546
-0.30356258 -0.25701636 0.53100002
-0.28158587 -0.24436972 0.50600004
-0.27895144 -0.24329999 0.50400001
-0.28073582 -0.24609299 0.51000005
-0.26635486 -0.24204385 0.50300002
-0.26188323 -0.24177796 0.50300002
-0.26505691 -0.24601659 0.51200002
-0.26148832 -0.24400923 0.50800002
-0.25589851 -0.24008389 0.5
-0.2413021 -0.23932628 0.5
-0.24081326 -0.24021412 0.50200003
-0.24031474 -0.2411025 0.50400001
-0.23599146 -0.23953429 0.50100005
-0.22547132 -0.2386246 0.5
-0.22762704 -0.24238408 0.50800002
-0.228403 -0.24471165 0.51300001
-0.22738248 -0.24513143 0.514
-0.22591828 -0.24507517 0.514
-0.2244556 -0.24501987 0.514
-0.22429597 -0.24639529 0.51700002
-0.22325873 -0.24681804 0.51800001
-0.22307365 -0.24819428 0.52100003
-0.22074629 -0.24718945 0.51900005
-0.21800917 -0.24570969 0.51600003
-0.21654944 -0.24565968 0.51600003
-0.2167584 -0.2475145 0.52000004
-0.21529001 -0.24746586 0.52000004
-0.21217813 -0.24551485 0.51600003
-0.20909008 -0.24356541 0.51200002
-0.2072425 -0.24304439 0.51100004
-0.20660999 -0.24395096 0.51300001
-0.20436768 -0.24295619 0.51100004
-0.20134351 -0.2410118 0.50700003
-0.19952589 -0.2404947 0.50600004
-0.19849806 -0.24092893 0.50700003
-0.19863178 -0.24278912 0.51100004
-0.19797234 -0.24369931 0.51300001
-0.19730277 -0.24460995 0.51500005
-0.19396088 -0.24219675 0.51000005
-0.1925355 -0.2421591 0.51000005
-0.19073638 -0.24164739 0.509
-0.19080353 -0.24350992 0.51300001
-0.18863443 -0.24252494 0.51100004
-0.18647733 -0.24154085 0.509
-0.18469593 -0.2410322 0.50800002
-0.18256019 -0.24004993 0.50600004
-0.18151048 -0.24049158 0.50700003
-0.18010078 -0.24045944 0.50700003
-0.17974931 -0.24185058 0.51000005
-0.17833294 -0.24181949 0.51000005
-0.17691742 -0.24178904 0.51000005
-0.17584673 -0.24223316 0.51100004
-0.17408861 -0.24172984 0.51000005
-0.17267537 -0.24170114 0.51000005
-0.16991961 -0.23977751 0.50600004
-0.16851889 -0.23975015 0.50600004
-0.16645829 -0.23877577 0.50400001
-0.16571951 -0.23969704 0.50600004
-0.16464557 -0.24014495 0.50700003
-0.16356675 -0.24059327 0.50800002
-0.16216384 -0.24056847 0.50800002
-0.16107801 -0.24101765 0.509
-0.1596736 -0.24099384 0.509
-0.15826975 -0.24097049 0.509
-0.15625015 -0.24000089 0.50700003
-0.15454756 -0.23950528 0.50600004
-0.15285103 -0.2390102 0.505
-0.15206032 -0.23993543 0.50700003
-0.15096197 -0.24038771 0.50800002
-0.15044747 -0.24178673 0.51100004
-0.14904198 -0.24176654 0.51100004
-0.14763696 -0.24174681 0.51100004
-0.14566009 -0.2407814 0.509
-0.14397815 -0.24028958 0.50800002
-0.14230214 -0.23979828 0.50700003
-0.14118794 -0.2402533 0.50800002
-0.14089423 -0.24212737 0.51200002
-0.140579 -0.24400158 0.51600003
-0.13970284 -0.24493019 0.51800001
-0.13828224 -0.24491349 0.51800001
-0.13580517 -0.24300607 0.514
-0.13256605 -0.23968105 0.50700003
-0.12962438 -0.23682952 0.50100005
-0.12799591 -0.23634209 0.5
-0.12738626 -0.2377457 0.50300002
-0.12651004 -0.23867685 0.505
-0.12512764 -0.23866303 0.505
-0.12350055 -0.23817699 0.50400001
-0.12187923 -0.23769128 0.50300002
-0.12122198 -0.23909606 0.50600004
-0.12007495 -0.23955597 0.50700003
-0.11822045 -0.23859873 0.505
-0.11591446 -0.23669703 0.50100005
-0.11477375 -0.2371579 0.50200003
-0.11362785 -0.237619 0.50300002
-0.11269992 -0.23855275 0.505
-0.11132045 -0.23854195 0.505
-0.11037665 -0.23947613 0.50700003
-0.10920719 -0.23993814 0.50800002
-0.10760801 -0.23945577 0.50700003
-0.10664307 -0.24039058 0.509
-0.10587423 -0.24179783 0.51200002
-0.10549734 -0.24414967 0.51700002
-0.10448939 -0.24508494 0.51900005
-0.10307354 -0.24507594 0.51900005
-0.10146201 -0.24459496 0.51800001
-0.10043559 -0.24553084 0.52000004
-0.099588841 -0.24693899 0.523
-0.09853825 -0.24787515 0.52500004
-0.096737072 -0.24692297 0.523
-0.094946966 -0.24597105 0.52100003
-0.09334746 -0.24549153 0.52000004
-0.092283905 -0.24642846 0.52200001
-0.091209643 -0.24736558 0.52400005
-0.0901246 -0.2483028 0.52600002
-0.088523 -0.24782406 0.52500004
-0.086926974 -0.24734555 0.52400005
-0.085499704 -0.24733925 0.52400005
-0.084233008 -0.24780513 0.52500004
-0.082803287 -0.2477992 0.52500004
-0.081373684 -0.24779342 0.52500004
-0.080096476 -0.24825978 0.52600002
-0.078963488 -0.24919827 0.528
-0.077672921 -0.24966498 0.52900004
-0.076376989 -0.25013179 0.53000003
-0.075217135 -0.25107065 0.53200001
-0.074601136 -0.2538974 0.53800005
-0.07517606 -0.26097143 0.55300003
-0.075802654 -0.26851726 0.56900001
-0.07634227 -0.276063 0.58500004
-0.075772688 -0.2798335 0.59300005
-0.07540977 -0.28454775 0.60300004
-0.074380845 -0.28690261 0.60800004
-0.073444426 -0.28972945 0.61400002
-0.072007872 -0.29066893 0.61600006
-0.070788853 -0.29255217 0.62
-0.069436714 -0.29396367 0.62300003
-0.067959592 -0.29490343 0.625
-0.066153631 -0.29442784 0.62400001
-0.064663067 -0.29536784 0.62600005
-0.063161686 -0.29630795 0.62800002
-0.061551642 -0.29677638 0.62900001
-0.05955568 -0.29535764 0.62600005
-0.057668507 -0.29441085 0.62400001
-0.056061372 -0.29487965 0.625
-0.054361876 -0.29487675 0.625
-0.052578174 -0.29440218 0.62400001
-0.050718419 -0.29345593 0.62200004
-0.049027234 -0.2934534 0.62200004
-0.047336094 -0.29345095 0.62200004
-0.045644999 -0.29344863 0.62200004
-0.043953944 -0.29344636 0.62200004
-0.042262934 -0.29344425 0.62200004
-0.040571962 -0.29344225 0.62200004
-0.038693491 -0.292025 0.61900002
-0.036950957 -0.29155138 0.61800003
-0.035213888 -0.29107791 0.61700004
-0.033536643 -0.2910763 0.61700004
-0.031756148 -0.29013121 0.61500001
-0.030133316 -0.29060155 0.61600006
-0.028412666 -0.29012838 0.61500001
-0.026784446 -0.29059887 0.61600006
-0.025069276 -0.29012591 0.61500001
-0.023473704 -0.29106835 0.61700004
-0.021796621 -0.2910673 0.61700004
-0.020152165 -0.29153806 0.61800003
-0.018412622 -0.29059371 0.61600006
-0.016738305 -0.29059294 0.61600006
-0.015039548 -0.29012045 0.61500001
-0.013454923 -0.29200679 0.61900002
-0.011772488 -0.29200619 0.61900002
-0.010106364 -0.29247746 0.62
-0.0083940653 -0.29153359 0.61800003
-0.0067361025 -0.29247674 0.62
-0.0050591263 -0.29294822 0.62100005
-0.0033767184 -0.29341978 0.62200004
-0.0016861659 -0.29341966 0.62200004
4.3782284e-06 -0.29294786 0.62100005
0.0016922114 -0.29294795 0.62100005
0.0033854891 -0.29341978 0.62200004
0.0050760438 -0.29341996 0.62200004
0.0067666029 -0.29342023 0.62200004
0.0084435698 -0.29294881 0.62100005
0.010147737 -0.29342094 0.62200004
0.011838315 -0.29342142 0.62200004
0.013507153 -0.2929503 0.62100005
0.015170563 -0.29247916 0.62
0.016855737 -0.29247987 0.62
0.018600734 -0.29342419 0.62200004
0.020291371 -0.29342505 0.62200004
0.021982025 -0.29342604 0.62200004
0.0236727 -0.29342708 0.62200004
0.025281833 -0.29248467 0.62
0.02696711 -0.29248586 0.62
0.028652405 -0.29248714 0.62
0.029701617 -0.28635573 0.60700005
0.031145023 -0.28447011 0.60300004
0.033164766 -0.28777397 0.61000001
0.035622202 -0.29438028 0.62400001
0.037378311 -0.29485378 0.625
0.03901485 -0.29438385 0.62400001
0.040776461 -0.29485756 0.625
0.042407628 -0.29438779 0.62400001
0.044033401 -0.29391816 0.62300003
0.045580376 -0.29297686 0.62100005
0.047268756 -0.29297918 0.62100005
0.048957169 -0.29298159 0.62100005
0.050727196 -0.29345596 0.62200004
0.052418426 -0.29345861 0.62200004
0.054283693 -0.29440498 0.62400001
0.056070182 -0.29487965 0.625
0.057677314 -0.29441088 0.62400001
0.059088755 -0.29299858 0.62100005
0.060777552 -0.2930018 0.62100005
0.06246642 -0.29300523 0.62100005
0.06425865 -0.29348052 0.62200004
0.065844342 -0.29301232 0.62100005
0.067424662 -0.29254425 0.62
0.069111101 -0.29254815 0.62
0.071025982 -0.29349589 0.62200004
0.072601102 -0.29302824 0.62100005
0.074290507 -0.29303262 0.62100005
0.075857632 -0.2925652 0.62
0.077544495 -0.29256982 0.62
0.079103664 -0.29210275 0.61900002
0.080657482 -0.29163581 0.61800003
0.082339205 -0.29164091 0.61800003
0.084156975 -0.2921181 0.61900002
0.085841641 -0.29212356 0.61900002
0.087667815 -0.29260117 0.62
0.089643672 -0.29355091 0.62200004
0.091336861 -0.29355696 0.62200004
0.093030177 -0.29356316 0.62200004
0.094419047 -0.29262564 0.62
0.095952183 -0.29216027 0.61900002
0.097637758 -0.2921671 0.61900002
0.099323466 -0.29217407 0.61900002
0.10117252 -0.29265332 0.62
0.10153404 -0.28888452 0.61200005
0.1016835 -0.28464365 0.60300004
0.10349762 -0.28512341 0.60400003
0.10723225 -0.29079622 0.61600006
0.11050201 -0.29505324 0.625
0.11238483 -0.29553407 0.62600005
0.11390873 -0.29507086 0.625
0.11598238 -0.29602432 0.62700003
0.117504 -0.29556167 0.62600005
0.11978211 -0.29698789 0.62900001
0.12149732 -0.2969979 0.62900001
0.12321278 -0.29700825 0.62900001
0.12453123 -0.29607442 0.62700003
0.12624173 -0.2960853 0.62700003
0.12774839 -0.29562423 0.62600005
0.12904304 -0.29469115 0.62400001
0.13074611 -0.29470286 0.62400001
0.13244946 -0.29471487 0.62400001
0.1341531 -0.29472724 0.62400001
0.13563931 -0.29426759 0.62300003
0.13712035 -0.29380819 0.62200004
0.13837306 -0.29287672 0.62
0.13961515 -0.29194549 0.61800003
0.14038935 -0.29006967 0.61400002
0.14114201 -0.28819403 0.61000001
0.14187314 -0.28631857 0.60600001
0.14187221 -0.2830258 0.59900004
0.14111458 -0.27831542 0.58900005
0.13812174 -0.26935205 0.57000005
0.13404506 -0.25849771 0.54700005
0.13058624 -0.2490603 0.52700001
0.12977409 -0.24482109 0.51800001
0.13043264 -0.24341765 0.51500005
0.13158707 -0.24295972 0.514
0.13273643 -0.24250215 0.51300001
0.13361919 -0.24157208 0.51100004
0.13528405 -0.2420606 0.51200002
0.1366878 -0.24207675 0.51200002
0.13809194 -0.24209327 0.51200002
0.13949654 -0.24211016 0.51200002
0.14062633 -0.24165456 0.51100004
0.14091723 -0.23978046 0.50700003
0.14174798 -0.23885241 0.505
0.14313507 -0.23887064 0.505
0.14452264 -0.23888931 0.505
0.14562173 -0.23843531 0.50400001
0.1467158 -0.23798166 0.50300002
0.14839374 -0.23847468 0.50400001
0.14948329 -0.23802181 0.50300002
0.15056787 -0.2375693 0.50200003
0.15164749 -0.23711717 0.50100005
0.15302758 -0.23713875 0.50100005
0.15409999 -0.23668736 0.5
0.16408914 -0.23732862 0.50100005
0.16514437 -0.23688085 0.5
0.2210909 -0.23983067 0.50300002
0.22340854 -0.24083953 0.505
0.22484863 -0.24089576 0.505
0.22539409 -0.23999871 0.50300002
0.2268316 -0.24005666 0.50300002
0.22781694 -0.23963824 0.50200003
0.23016819 -0.24065302 0.50400001
0.23207304 -0.24119172 0.505
0.23352294 -0.24125396 0.505
0.23404399 -0.24036156 0.50300002
0.23549165 -0.24042566 0.50300002
0.23835424 -0.24192518 0.50600004
0.24123597 -0.24342656 0.509
0.2431833 -0.24397314 0.51000005
0.24417885 -0.24356405 0.509
0.24468796 -0.24267723 0.50700003
0.24567297 -0.24226977 0.50600004
0.24714264 -0.24234216 0.50600004
0.24910569 -0.24289481 0.50700003
0.25157088 -0.24392815 0.509
0.25255841 -0.24352522 0.50800002
0.25454241 -0.24408229 0.509
0.25502551 -0.24320187 0.50700003
0.25600505 -0.24280195 0.50600004
0.25698099 -0.24240296 0.505
0.25795338 -0.24200499 0.50400001
0.26098132 -0.24352936 0.50700003
0.26195848 -0.24313404 0.50600004
0.26345292 -0.24322043 0.50600004
0.26442614 -0.24282733 0.505
0.26644921 -0.24339736 0.50600004
0.26742166 -0.24300671 0.505
0.27105346 -0.24502407 0.509
0.27096328 -0.24367341 0.50600004
0.27247334 -0.24376838 0.50600004
0.27398619 -0.24386483 0.50600004
0.2782242 -0.24637349 0.51100004
0.27975777 -0.24647398 0.51100004
0.28019327 -0.24561095 0.509
0.28283376 -0.24667971 0.51100004
0.28381988 -0.24630205 0.51000005
0.28368393 -0.24495929 0.50700003
0.28128266 -0.24168345 0.5
0.28642011 -0.24249625 0.50100005
0.29025063 -0.24454644 0.505
0.29122001 -0.24417786 0.50400001
0.29218671 -0.24381059 0.50300002
0.29315078 -0.24344467 0.50200003
0.29411229 -0.24308009 0.50100005
0.29684165 -0.24417315 0.50300002
0.29780737 -0.24381205 0.50200003
0.29936704 -0.2439383 0.50200003
0.29973155 -0.24309406 0.5
0.30189532 -0.24371015 0.50100005
0.31455806 -0.2448228 0.50100005
0.3193796 -0.24527577 0.50100005
0.32291836 -0.24690098 0.50400001
0.35173786 -0.25331348 0.51200002
0.35905495 -0.25128445 0.505
0.36295778 -0.2529957 0.50800002
0.36545271 -0.25371584 0.509
0.36940494 -0.25543791 0.51200002
0.36831054 -0.25367054 0.50800002
0.36825567 -0.25163567 0.50300002
-0.36418584 -0.29432723 0.60100001
-0.3677277 -0.29857197 0.61000001
-0.36462131 -0.2974332 0.60800004
-0.36928782 -0.30265409 0.61900002
-0.35786667 -0.29467726 0.60300004
-0.34654948 -0.2867108 0.58700001
-0.33592314 -0.27924275 0.57200003
-0.33532494 -0.28007922 0.574
-0.33239412 -0.27896604 0.57200003
-0.32601142 -0.27493107 0.56400001
-0.31278217 -0.26505509 0.54400003
-0.28982416 -0.25046366 0.51500005
-0.28266412 -0.24549134 0.505
-0.27835146 -0.24295457 0.5
-0.27739421 -0.24333574 0.50100005
-0.27863657 -0.24566007 0.50600004
-0.26566216 -0.24799903 0.51300001
-0.26157364 -0.2454952 0.50800002
-0.24137245 -0.24077535 0.5
-0.24136257 -0.24214923 0.50300002
-0.23942947 -0.24159834 0.50200003
-0.22589278 -0.24192324 0.50400001
-0.22667971 -0.2442646 0.509
-0.22566977 -0.24468674 0.51000005
-0.22465566 -0.2451096 0.51100004
-0.22320054 -0.24505363 0.51100004
-0.22391669 -0.24739587 0.51600003
-0.22201928 -0.24686195 0.51500005
-0.22141381 -0.24776685 0.51700002
-0.21867123 -0.2462766 0.514
-0.2163697 -0.24526691 0.51200002
-0.21450064 -0.24473745 0.51100004
-0.21514019 -0.2470821 0.51600003
-0.21451044 -0.2479904 0.51800001
-0.21345945 -0.24842058 0.51900005
-0.20995326 -0.24598001 0.514
-0.20809914 -0.24545512 0.51300001
-0.20665468 -0.24540956 0.51300001
-0.2040114 -0.24392998 0.51000005
-0.20059168 -0.24149525 0.505
-0.19759564 -0.23954032 0.50100005
-0.19775592 -0.24141109 0.505
-0.19828364 -0.24375999 0.51000005
-0.19724044 -0.24419725 0.51100004
-0.19542634 -0.24367952 0.51000005
-0.19285809 -0.2422072 0.50700003
-0.19257316 -0.24360196 0.51000005
-0.19189771 -0.24451941 0.51200002
-0.19158404 -0.24591477 0.51500005
-0.18793164 -0.24301349 0.509
-0.18541294 -0.24154586 0.50600004
-0.18291186 -0.24007925 0.50300002
-0.18115012 -0.23956819 0.50200003
-0.17903674 -0.23858073 0.5
-0.17660844 -0.23899367 0.50100005
-0.17661539 -0.24087031 0.505
-0.17556009 -0.24131642 0.50600004
-0.17415582 -0.24128611 0.50600004
-0.17172809 -0.23982599 0.50300002
-0.16999504 -0.23932029 0.50200003
-0.16826825 -0.23881529 0.50100005
-0.16688082 -0.23878758 0.50100005
-0.1658244 -0.23923695 0.50200003
-0.16476314 -0.2396868 0.50300002
-0.16369702 -0.24013706 0.50400001
-0.16230398 -0.24011134 0.50400001
-0.16059233 -0.23960976 0.50300002
-0.15920337 -0.23958515 0.50300002
-0.15812874 -0.24003728 0.50400001
-0.15704918 -0.24048978 0.505
