# .PCD v0.7 - Point Cloud Data file format
VERSION 0.7
FIELDS x y z normal_x normal_y normal_z curvature
SIZE 4 4 4 4 4 4 4
TYPE F F F F F F F
COUNT 1 1 1 1 1 1 1
WIDTH 583
HEIGHT 1
VIEWPOINT 0 0 0 1 0 0 0
POINTS 583
DATA ascii
-0.043703444 0.076842174 0.69500005 0.56840605 0.46393785 -0.67946762 0.0041313074
-0.041924495 0.077065364 0.69700003 0.58377689 0.46634972 -0.66462201 0.0040970491
-0.040134478 0.077288486 0.69900006 0.59715718 0.46875197 -0.65090311 0.0038588997
-0.038224015 0.077290386 0.69900006 0.60728055 0.46758991 -0.6423161 0.003108782
-0.036417317 0.077513345 0.70100003 0.62289816 0.47193453 -0.62391955 0.00258108
-0.034648776 0.077846803 0.70400006 0.63635838 0.47737992 -0.60593438 0.0022112534
-0.032863706 0.078180179 0.70700002 0.64742196 0.48162726 -0.59066069 0.0033559266
-0.030974615 0.078292318 0.708 0.65270269 0.47849011 -0.58738941 0.0034198069
-0.02916198 0.078625545 0.71100003 0.66082579 0.4834775 -0.574072 0.0037962403
-0.027332833 0.078958683 0.71400005 0.66529274 0.48963478 -0.56359857 0.0035435755
-0.025451636 0.079181157 0.71600002 0.6699993 0.48966047 -0.55797285 0.0036375374
-0.023592221 0.079514123 0.71900004 0.67468572 0.48931509 -0.55260289 0.0034612156
-0.021686234 0.079736412 0.72100002 0.67808044 0.48858532 -0.54908216 0.0036287969
-0.019796576 0.080069214 0.72400004 0.68583995 0.48837984 -0.53954494 0.0047893198
-0.017841218 0.080180734 0.72500002 0.6896438 0.48617214 -0.53668255 0.0053425999
-0.015945949 0.080623947 0.72900003 0.69449896 0.48329315 -0.53300935 0.0062562102
-0.014009604 0.080956474 0.73200005 0.70000827 0.47699425 -0.53147435 0.0062586316
-0.012089604 0.081510112 0.73700005 0.70843548 0.47063017 -0.52595288 0.0070684841
-0.010128541 0.081953049 0.74100006 0.73232228 0.45447126 -0.50710946 0.0066344314
-0.0081236931 0.082174689 0.74300003 0.74482483 0.4473592 -0.49508145 0.006450458
-0.006124272 0.082617439 0.74700004 0.76413941 0.43417001 -0.47706121 0.0054802601
-0.0040974841 0.082949497 0.75000006 0.78942281 0.41994944 -0.44772083 0.0050059892
-0.0020569973 0.083392031 0.75400001 0.81381261 0.40554196 -0.4162268 0.0034173075
5.385195e-06 0.083945088 0.75900006 0.84743595 0.38236976 -0.36830127 0.0042479625
0.0020978621 0.084608629 0.76500005 0.86669141 0.36164665 -0.3435953 0.0029881112
0.0042286315 0.085382678 0.77200001 0.86765367 0.33945546 -0.36324534 0.0041307034
0.0063976781 0.086156607 0.77900004 0.85423666 0.32909819 -0.40246022 0.0065449802
0.0085940445 0.08681982 0.78500003 0.82435411 0.33201781 -0.45848054 0.0085597103
0.010809519 0.08737234 0.79000002 0.79106283 0.34400123 -0.50584853 0.0076207784
0.013068723 0.08803533 0.79600006 0.76329005 0.36056635 -0.53607851 0.0057677417
0.015264935 0.088145234 0.79700005 0.74868435 0.36629173 -0.55254149 0.0047695152
0.017488448 0.088365614 0.79900002 0.74791849 0.37197772 -0.54977322 0.004207545
0.019698214 0.088475294 0.80000001 0.7443589 0.3771697 -0.55106527 0.0039806725
0.021995449 0.08891663 0.80400002 0.74178791 0.38887018 -0.54637957 0.0033804702
0.024314484 0.08935786 0.80800003 0.74585557 0.39503378 -0.53632796 0.0031643556
0.026655305 0.089798972 0.81200004 0.75464857 0.4014962 -0.51894742 0.0028733972
0.029053468 0.090350553 0.81700003 0.77166027 0.41046137 -0.48586205 0.0022961372
0.031517163 0.091012582 0.82300001 0.79544777 0.4166621 -0.44006318 0.0012429086
0.049470399 0.10526775 0.95200002 0.81464511 0.28129616 -0.50717419 0.0023146095
0.052346017 0.10581814 0.95700002 0.82041222 0.27592272 -0.50078982 0.0021538818
-0.20187962 0.069836885 0.65100002 0.99190354 0.12410117 0.026948925 0.074022345
-0.19858302 0.069304429 0.64600003 0.99166405 0.099303052 0.082105964 0.08788684
-0.20293093 0.071454182 0.66600001 0.98411673 0.17659032 -0.018171858 0.065341517
-0.20294274 0.072102122 0.67200005 0.98429912 0.15740599 -0.079866387 0.063910685
-0.20202412 0.072428271 0.67500001 0.98885715 0.13065937 -0.071342848 0.067653045
-0.20019946 0.072432607 0.67500001 0.98998004 0.13016088 -0.054751452 0.06694375
-0.19631749 0.071685784 0.66800004 0.98695064 0.16067071 -0.010652885 0.068404384
-0.19509394 0.071904801 0.67000002 0.9871034 0.15629534 -0.034620769 0.067965336
-0.20049457 0.074592419 0.69500005 0.84927869 0.3808589 -0.36561224 0.089736313
-0.20861763 0.078353755 0.73000002 -0.67809403 0.056182079 -0.73282474 0.044787735
-0.20777604 0.078788042 0.73400003 -0.66334528 0.069797099 -0.74505132 0.024178827
-0.20495008 0.07847099 0.73100001 -0.6431185 0.065117106 -0.76299304 0.029600188
-0.20297322 0.078476012 0.73100001 -0.63343972 0.066484265 -0.77093059 0.027061045
-0.20072119 0.0783737 0.73000002 -0.61980307 0.068918601 -0.78172523 0.027817108
-0.19792995 0.078056686 0.72700006 -0.60309684 0.071257286 -0.79447877 0.028543375
-0.19515473 0.077739656 0.72400004 -0.59867024 0.06401515 -0.79843348 0.040437207
-0.1921287 0.077315226 0.72000003 -0.58713287 0.04671298 -0.80814171 0.05641032
-0.18965243 0.077105552 0.71800005 -0.57477969 0.047070269 -0.81695324 0.059369259
-0.18744822 0.07700327 0.71700001 -0.56493264 0.062751956 -0.82274747 0.044136751
-0.18524922 0.076901004 0.71600002 -0.55620301 0.069862083 -0.82810479 0.037828598
-0.18305543 0.076798737 0.71500003 -0.55289787 0.070786893 -0.83023679 0.026671732
-0.18086682 0.076696485 0.71400005 -0.54708236 0.076144964 -0.83360827 0.020076429
-0.17893401 0.076701649 0.71400005 -0.55109525 0.075266562 -0.83104098 0.010241811
-0.177001 0.076706834 0.71400005 -0.55031002 0.07392922 -0.83168107 0.0069694854
-0.17457734 0.076497145 0.71200001 -0.54412919 0.075188488 -0.83562553 0.0048764064
-0.1719218 0.076180004 0.70900005 -0.53155696 0.074900724 -0.84370434 0.0029977234
-0.16952203 0.075970262 0.70700002 -0.51843464 0.074800991 -0.85183936 0.0030363384
-0.16665873 0.075545594 0.70300001 -0.50048888 0.074934214 -0.86249393 0.0033457363
-0.16451992 0.075443268 0.70200002 -0.49150684 0.073032826 -0.86780602 0.0036673516
-0.16238628 0.075340942 0.70100003 -0.48162365 0.071131863 -0.87348658 0.0039379383
-0.16071567 0.075453557 0.70200002 -0.47564352 0.069818594 -0.87686294 0.0034878843
-0.15903938 0.075566188 0.70300001 -0.47178233 0.06856592 -0.87904501 0.0036543203
-0.15646333 0.075248845 0.70000005 -0.4497802 0.065918975 -0.89070344 0.0040210732
-0.15390326 0.074931443 0.69700003 -0.42925015 0.061769679 -0.90107095 0.0032061711
-0.15157729 0.0747215 0.69500005 -0.41377392 0.058654051 -0.90848821 0.0018789334
-0.14969267 0.074726574 0.69500005 -0.40482512 0.057563215 -0.91258049 0.0016974153
-0.14802042 0.074839152 0.69600004 -0.40005329 0.056190122 -0.9147678 0.0020374949
-0.14592256 0.074736662 0.69500005 -0.38992053 0.053406626 -0.91929847 0.0018988814
-0.14382984 0.07463415 0.69400001 -0.38004702 0.050451364 -0.92359018 0.0006867075
-0.14174224 0.0745316 0.69300002 -0.37136739 0.047173768 -0.9272868 0
-0.13965982 0.074429028 0.69200003 -0.36547995 0.044262897 -0.92976618 0
-0.13738342 0.074218854 0.69000006 -0.35812089 0.041592851 -0.93274838 0
-0.13492116 0.07390105 0.68700004 -0.34944648 0.040149316 -0.93609571 0
-0.1328623 0.073798344 0.68600005 -0.34291384 0.039431881 -0.93853885 6.069056e-05
-0.13080855 0.0736956 0.68500006 -0.33488086 0.038563237 -0.94147098 0.00039353216
-0.12894818 0.073700398 0.68500006 -0.32813874 0.038536899 -0.94384313 0.000834612
-0.12708755 0.073705174 0.68500006 -0.32371524 0.038670942 -0.94536394 0.0020784887
-0.12522659 0.073709913 0.68500006 -0.32097068 0.03998673 -0.9462446 0.0030177792
-0.12318526 0.07360702 0.68400002 -0.31623366 0.042569473 -0.94772571 0.0035687278
-0.12132643 0.073611684 0.68400002 -0.31148896 0.046209011 -0.94912559 0.0041676094
-0.11946733 0.073616326 0.68400002 -0.30424064 0.050062839 -0.95127881 0.0053400309
-0.11760792 0.073620915 0.68400002 -0.29594907 0.053791996 -0.95368791 0.005061524
-0.11591744 0.073733121 0.68500006 -0.28841582 0.058745936 -0.95570141 0.0049541537
-0.11388823 0.073630005 0.68400002 -0.27475181 0.064595148 -0.95934296 0.004940894
-0.11186418 0.073526837 0.68300003 -0.26161954 0.071891159 -0.96248996 0.0057285586
-0.10984526 0.073423617 0.68200004 -0.24997914 0.081412375 -0.96482247 0.007411086
-0.1078315 0.073320329 0.68100005 -0.23518999 0.090086743 -0.96776545 0.0072162095
-0.10582288 0.073216982 0.68000001 -0.21839871 0.098099381 -0.97091627 0.0077814083
-0.10381942 0.073113583 0.67900002 -0.20028061 0.10722362 -0.97385359 0.0072819586
-0.10197131 0.073117808 0.67900002 -0.18543492 0.11784787 -0.9755643 0.008204353
-0.099975459 0.073014289 0.67800003 -0.17135251 0.12856773 -0.97678483 0.0092715239
-0.097984768 0.072910711 0.67700005 -0.15340532 0.14103527 -0.97804695 0.010095591
-0.096141264 0.072914772 0.67700005 -0.13481644 0.15300983 -0.97898543 0.011241514
-0.094297461 0.072918765 0.67700005 -0.11429307 0.166325 -0.97942489 0.011776019
-0.09245342 0.072922722 0.67700005 -0.09355218 0.17928787 -0.97933847 0.012829877
-0.090742916 0.073034324 0.67800003 -0.072071165 0.1936882 -0.97841233 0.013288885
-0.088895604 0.073038161 0.67800003 -0.048341181 0.20718019 -0.9771077 0.014422843
-0.086919636 0.072934218 0.67700005 -0.018311562 0.21997437 -0.97533375 0.015810756
-0.084948845 0.072830193 0.67600006 0.0085400157 0.23501448 -0.97195435 0.016858043
-0.082983248 0.072726093 0.67500001 0.032555915 0.24701293 -0.96846515 0.017070616
-0.081143066 0.072729677 0.67500001 0.053371597 0.25887242 -0.96443588 0.017379275
-0.079537608 0.072948709 0.67700005 0.083210863 0.27766651 -0.95706701 0.016587885
-0.077920988 0.073167682 0.67900002 0.10843068 0.29469973 -0.94941819 0.016653961
-0.076069154 0.073171102 0.67900002 0.13489823 0.3085959 -0.94157898 0.015795827
-0.074107774 0.073066667 0.67800003 0.15361823 0.31841877 -0.93542022 0.014837021
-0.072151616 0.072962165 0.67700005 0.17927437 0.32982978 -0.92686194 0.014132233
-0.070304535 0.072965354 0.67700005 0.20508601 0.34069899 -0.91753149 0.013941032
-0.068457216 0.072968483 0.67700005 0.23341522 0.35109705 -0.90677905 0.013758134
-0.06680645 0.073187098 0.67900002 0.26615253 0.36583644 -0.89181083 0.01324769
-0.065048903 0.073297888 0.68000001 0.29504144 0.37760618 -0.87770391 0.011459659
-0.063285679 0.073408611 0.68100005 0.32610649 0.39146414 -0.86047107 0.009920774
-0.061426576 0.073411457 0.68100005 0.34845674 0.40020117 -0.8475948 0.0098285889
-0.059742209 0.073629841 0.68300003 0.37364647 0.41135228 -0.83137089 0.0095032929
-0.057961978 0.073740341 0.68400002 0.39855534 0.41913569 -0.8157689 0.0085707372
-0.056012079 0.073635176 0.68300003 0.41513982 0.42106813 -0.80644929 0.0082492838
-0.054226 0.073745541 0.68400002 0.44064704 0.42731032 -0.78945309 0.0074204723
-0.052434281 0.07385584 0.68500006 0.46364674 0.431523 -0.77383435 0.0072713108
-0.050784536 0.074181706 0.68800002 0.49260873 0.43865862 -0.75160843 0.0065738144
-0.048904985 0.074184038 0.68800002 0.5113619 0.43933979 -0.7385726 0.006136382
-0.047161959 0.074401945 0.69000006 0.53147113 0.44508666 -0.72071928 0.0057405047
-0.045342226 0.074511945 0.69100004 0.54896903 0.44665954 -0.7064901 0.0055859811
-0.04357975 0.074729703 0.69300002 0.56724918 0.45094496 -0.68911326 0.0050950581
-0.041866351 0.075055234 0.69600004 0.58354717 0.45501935 -0.67262918 0.0044977036
-0.040021557 0.075165011 0.69700003 0.59309179 0.45552492 -0.6638819 0.0039838632
-0.038171165 0.075274713 0.69800001 0.60563678 0.4558045 -0.65226257 0.0032868686
-0.036367115 0.075492173 0.70000005 0.62059331 0.45891014 -0.63581872 0.002683575
-0.034601226 0.075817406 0.70300001 0.63805491 0.46592799 -0.6130228 0.0023686681
-0.032818802 0.076142557 0.70600003 0.64886534 0.46768039 -0.60020733 0.002798955
-0.030932361 0.076251924 0.70700002 0.65522552 0.46506846 -0.59530735 0.002559647
-0.029081356 0.076469079 0.70900005 0.66193825 0.46789762 -0.58558476 0.0035687848
-0.02725759 0.076793991 0.71200001 0.67060983 0.47032952 -0.57364845 0.0038670432
-0.025381776 0.077010982 0.71400005 0.67641217 0.46977517 -0.5672546 0.003300684
-0.023494925 0.077227876 0.71600002 0.6801194 0.47345874 -0.55970937 0.0038978702
-0.021597052 0.07744468 0.71800005 0.68411309 0.4721857 -0.55590457 0.0034039461
-0.019742852 0.077877127 0.72200006 0.6890766 0.47731444 -0.54529279 0.0040357495
-0.01784209 0.078201622 0.72500002 0.69458038 0.47639894 -0.53907531 0.0050086519
-0.015924852 0.078526035 0.72800004 0.6996581 0.47529969 -0.53344989 0.0057091722
-0.013972007 0.078742482 0.73000002 0.70733452 0.46828023 -0.52952009 0.0055256607
-0.012057384 0.079282448 0.73500001 0.71388042 0.46212643 -0.52613109 0.0058880555
-0.010088029 0.079606585 0.73800004 0.73023474 0.45183992 -0.51244301 0.0062664188
-0.0081022233 0.079930633 0.74100006 0.74560523 0.44173777 -0.49893948 0.0054295533
-0.0060917763 0.080146715 0.74300003 0.76212752 0.43321458 -0.48113075 0.0054587307
-0.0040867575 0.080686308 0.74800003 0.78386414 0.41854161 -0.45867196 0.0047062859
-0.0020516417 0.081117943 0.75200003 0.81359828 0.40210751 -0.4199613 0.0034054455
5.3712679e-06 0.081657335 0.75700003 0.84364229 0.38227597 -0.37700501 0.004240382
0.0020842529 0.081980899 0.76000005 0.85827732 0.37082317 -0.35475364 0.0037865187
0.0042124051 0.082951568 0.76900005 0.8768391 0.33748773 -0.34242538 0.0030874442
0.0063815652 0.083814263 0.77700001 0.86259413 0.32049823 -0.39142331 0.0062296023
0.0085835168 0.084568985 0.78400004 0.8307243 0.32468554 -0.45219085 0.0094478931
0.010796364 0.085107855 0.78900003 0.79165387 0.33313954 -0.51215458 0.0085920934
0.013020106 0.085538752 0.79300004 0.77062207 0.34668037 -0.53474706 0.0072354088
0.015227372 0.085753798 0.79500002 0.75800335 0.35229391 -0.54892612 0.0063168188
0.017423635 0.085860886 0.79600006 0.74801922 0.35839468 -0.55858803 0.0054423138
0.019625302 0.085967846 0.79700005 0.74523818 0.36284131 -0.55943382 0.0049878377
0.021941805 0.086506166 0.80200005 0.73937517 0.38080439 -0.55525875 0.0034974017
0.024225388 0.086828642 0.80500007 0.73895031 0.38907853 -0.55006391 0.0036379236
0.026590947 0.087366723 0.81000006 0.74921507 0.39872 -0.52886575 0.0036815931
0.028948192 0.087796822 0.81400001 0.76088744 0.40265447 -0.50884151 0.0032020868
0.031442102 0.088550381 0.82100004 0.79052287 0.41175121 -0.45335907 0.0016135849
0.034015208 0.089411661 0.82900006 0.81399697 0.41838548 -0.40294227 0.00096677203
0.049264912 0.10223796 0.94800007 0.82024592 0.26729646 -0.5057165 0.0019077497
0.05229383 0.1030983 0.95600003 0.82371265 0.2652458 -0.50114077 0.0024349627
-0.21244037 0.068045236 0.65100002 0.99478334 0.095854364 0.034900524 0.083591573
-0.21360594 0.070777886 0.67700005 0.96205008 0.26351538 -0.070846781 0.075381145
-0.2021936 0.068171836 0.65200001 0.99337339 0.1134004 0.018699279 0.070801884
-0.19674249 0.066920973 0.64000005 0.98740375 0.0090705492 0.15796059 0.086386062
-0.19745032 0.067761406 0.648 0.99370635 0.10025 0.049978115 0.081723772
-0.19328278 0.066928774 0.64000005 0.99000704 0.027868565 0.13823707 0.091087073
-0.20053186 0.070070222 0.67000002 0.98401517 0.16500564 -0.066987231 0.061551087
-0.19812757 0.069865264 0.66800004 0.98866057 0.14980453 -0.010436478 0.067476898
-0.19573402 0.069660321 0.66600001 0.98842597 0.14943747 -0.026125483 0.063517161
-0.19335116 0.069455408 0.66400003 0.99179149 0.12692761 -0.015462789 0.063416697
-0.20862249 0.076368645 0.73000002 -0.67895794 0.060040168 -0.73171806 0.038541432
-0.2072148 0.076582722 0.73200005 -0.65449166 0.071784414 -0.75265372 0.0222612
-0.20523541 0.076587617 0.73200005 -0.64506257 0.070346415 -0.76088476 0.020025732
-0.20297818 0.076487906 0.73100001 -0.63314617 0.071458206 -0.77072668 0.023470147
-0.20045124 0.076283582 0.72900003 -0.62042123 0.070612118 -0.78108352 0.03058756
-0.19739042 0.075869963 0.72500002 -0.60012293 0.07459639 -0.79642189 0.027363794
-0.1948902 0.075665638 0.72300005 -0.59534419 0.065940194 -0.80076039 0.03882217
-0.19186692 0.075251997 0.71900004 -0.58721727 0.053199019 -0.80767924 0.053470962
-0.18965748 0.075152323 0.71800005 -0.57960081 0.056726146 -0.81292379 0.046750933
-0.1869304 0.07484331 0.71500003 -0.55749571 0.062672392 -0.82781082 0.049328156
-0.18499556 0.074848324 0.71500003 -0.5534817 0.071366444 -0.8297981 0.033750214
-0.18254846 0.074643992 0.71300006 -0.54684967 0.081602432 -0.8332445 0.026662664
-0.1806186 0.074649036 0.71300006 -0.54166597 0.082675546 -0.83651829 0.022238903
-0.1781873 0.074444681 0.71100003 -0.54306644 0.085082643 -0.83536804 0.012520294
-0.1765103 0.074554451 0.71200001 -0.5421828 0.080446295 -0.83640075 0.0091007985
-0.17409208 0.074350104 0.71000004 -0.5367375 0.078849494 -0.84005696 0.0043250001
-0.17168443 0.074145719 0.708 -0.52696437 0.079320252 -0.84617782 0.0022755424
-0.16904759 0.073836602 0.70500004 -0.51177537 0.079018556 -0.85547763 0.0029404422
-0.16666383 0.073632166 0.70300001 -0.49967974 0.07823763 -0.86266971 0.0039392146
-0.16429065 0.073427722 0.70100003 -0.48796019 0.07590805 -0.86955899 0.0040564672
-0.16239138 0.073432758 0.70100003 -0.48103964 0.073894247 -0.87357908 0.0038946543
-0.16072075 0.073542543 0.70200002 -0.47426125 0.073059782 -0.87734741 0.0034193471
-0.15859202 0.073442809 0.70100003 -0.46050641 0.06854482 -0.88500595 0.0035246399
-0.15624487 0.073238291 0.69900006 -0.44292569 0.065765612 -0.89414304 0.0029788332
-0.15368751 0.07292895 0.69600004 -0.42444125 0.063024513 -0.9032594 0.0024672803
-0.15158232 0.072829142 0.69500005 -0.41192019 0.060813811 -0.90918833 0.0024590057
-0.14948227 0.072729297 0.69400001 -0.40002337 0.058671921 -0.91462499 0.0022543538
-0.14781275 0.072839059 0.69500005 -0.3952677 0.05802976 -0.91673112 0.0018800045
-0.14571758 0.072739176 0.69400001 -0.38350418 0.055543493 -0.92186731 0.0014199481
-0.14342028 0.072534457 0.69200003 -0.37300804 0.052214645 -0.92635775 0.00065433135
-0.14154264 0.072539337 0.69200003 -0.3664251 0.049778506 -0.929115 0
-0.1394629 0.072439387 0.69100004 -0.36119333 0.047679145 -0.9312712 0
-0.13738827 0.072339378 0.69000006 -0.35724476 0.045217492 -0.93291563 0
-0.13531879 0.072239347 0.68900001 -0.35194775 0.041963786 -0.9350785 0
-0.13306077 0.072034419 0.68700004 -0.34266549 0.039704915 -0.93861806 0
-0.13100427 0.071934305 0.68600005 -0.33618528 0.038247656 -0.94101894 0.00090190349
-0.12895294 0.071834154 0.68500006 -0.32828909 0.038005479 -0.94381243 0.00052302232
-0.12709226 0.071838826 0.68500006 -0.32530773 0.03779605 -0.94485253 0.001749763
-0.12523127 0.071843475 0.68500006 -0.32218385 0.039052721 -0.94587123 0.0029271259
-0.1231899 0.071743198 0.68400002 -0.31847814 0.042083904 -0.94699556 0.0033953218
-0.12133103 0.071747772 0.68400002 -0.31431726 0.044631582 -0.94826823 0.0040341555
-0.11929723 0.071647413 0.68300003 -0.3067081 0.049402043 -0.95052075 0.0051719514
-0.1174405 0.071651913 0.68300003 -0.29771757 0.051223688 -0.95327872 0.0048528635
-0.11558349 0.071656369 0.68300003 -0.28845942 0.055196397 -0.95589989 0.0045725037
-0.11355968 0.071555883 0.68200004 -0.27768913 0.061560567 -0.95869654 0.0046591354
-0.111541 0.071455322 0.68100005 -0.26668403 0.069163546 -0.96129918 0.0060024117
-0.1093664 0.07124979 0.67900002 -0.2500062 0.078963168 -0.96501905 0.0063937386
-0.1072024 0.071044177 0.67700005 -0.23395583 0.08659374 -0.96838331 0.0069446824
-0.10536025 0.071048394 0.67700005 -0.21879695 0.093466468 -0.97128361 0.006125431
-0.10367072 0.071157508 0.67800003 -0.2071977 0.1010158 -0.97306985 0.0063871704
-0.10182527 0.071161635 0.67800003 -0.1925756 0.11038815 -0.97505337 0.0065212334
-0.099832088 0.071060754 0.67700005 -0.17911151 0.12062293 -0.97640622 0.0090646464
-0.097844064 0.070959806 0.67600006 -0.16412909 0.13190962 -0.97757941 0.0099026859
-0.096003234 0.07096377 0.67600006 -0.14683414 0.14197594 -0.97891909 0.010111772
-0.094162107 0.070967682 0.67600006 -0.12792274 0.15386985 -0.97977543 0.011148114
-0.092320725 0.070971541 0.67600006 -0.10623964 0.16592121 -0.98039961 0.011694738
-0.090479061 0.070975348 0.67600006 -0.084052294 0.18011044 -0.98004866 0.013051417
-0.088768251 0.071084097 0.67700005 -0.062382802 0.19449016 -0.97891879 0.014754834
-0.086923331 0.071087793 0.67700005 -0.032912869 0.20933227 -0.97729051 0.016853567
-0.084701143 0.070776395 0.67400002 -0.0097401608 0.21986388 -0.97548193 0.017327951
-0.082740933 0.070674948 0.67300004 0.016481269 0.23351495 -0.97221357 0.016871467
-0.08102636 0.070783459 0.67400002 0.039585095 0.24739999 -0.96810448 0.016480746
-0.079541057 0.071101971 0.67700005 0.066500157 0.26311484 -0.96246988 0.016379302
-0.077809624 0.071210392 0.67800003 0.091526426 0.28164884 -0.95514232 0.01607864
-0.075848423 0.071108691 0.67700005 0.11220615 0.29310057 -0.94947445 0.015713038
-0.074001737 0.071111955 0.67700005 0.13917728 0.30576059 -0.94188118 0.015358129
-0.072048232 0.071010105 0.67600006 0.16412005 0.31665123 -0.93423581 0.01457974
-0.070307657 0.07111828 0.67700005 0.19332869 0.33224529 -0.92316687 0.014528532
-0.068359151 0.071016274 0.67600006 0.2189962 0.34252018 -0.91363049 0.014654945
-0.066711061 0.071229376 0.67800003 0.25061733 0.3559618 -0.90026784 0.014184925
-0.064956166 0.071337365 0.67900002 0.28124037 0.37023342 -0.88534236 0.01385932
-0.063195594 0.071445279 0.68000001 0.31219074 0.38199034 -0.86983919 0.011765231
-0.061339151 0.071448065 0.68000001 0.33337972 0.38828239 -0.85912436 0.010424536
-0.059657451 0.071660928 0.68200004 0.36380225 0.40016958 -0.84113747 0.01022658
-0.05787988 0.071768656 0.68300003 0.39042377 0.40827039 -0.82515734 0.0094947023
-0.056014638 0.071771227 0.68300003 0.41087556 0.4102447 -0.81417477 0.008298235
-0.054069925 0.071668632 0.68200004 0.42445019 0.41017208 -0.80721796 0.0079957033
-0.052207042 0.071671061 0.68200004 0.44751316 0.41292983 -0.79323447 0.0070018675
-0.050565429 0.071988679 0.68500006 0.48145887 0.42476183 -0.76666474 0.006740524
-0.048836164 0.07220114 0.68700004 0.50682843 0.42842948 -0.74804616 0.005602459
-0.047095791 0.072413534 0.68900001 0.52657402 0.43289742 -0.73165542 0.0055525163
-0.045344338 0.072625868 0.69100004 0.5500614 0.4361771 -0.71216708 0.0051741609
-0.043518897 0.072733015 0.69200003 0.56504643 0.43885258 -0.69866365 0.0054058325
-0.041747998 0.0729452 0.69400001 0.57927251 0.44242805 -0.68461716 0.0050155651
-0.039908592 0.073052198 0.69500005 0.59103173 0.44258806 -0.67438674 0.0039943131
-0.038118266 0.073264234 0.69700003 0.60410935 0.44567356 -0.66062605 0.0035358025
-0.036316872 0.073476195 0.69900006 0.62014174 0.44661906 -0.64494616 0.0029346468
-0.034504414 0.07368809 0.70100003 0.63607121 0.45087638 -0.62619793 0.0026358594
-0.032727379 0.074005015 0.70400006 0.65022814 0.45540035 -0.6081233 0.0025649969
-0.03084632 0.074111626 0.70500004 0.65694761 0.45299834 -0.60267103 0.0025940931
-0.029000698 0.074323274 0.70700002 0.66437328 0.45244843 -0.59489381 0.0027073489
-0.027105745 0.074429706 0.708 0.66888076 0.45125586 -0.59073412 0.0034020317
-0.02531188 0.074851453 0.71200001 0.67947954 0.45660967 -0.5742954 0.0038242475
-0.023463229 0.075167984 0.71500003 0.68610227 0.45827135 -0.56502301 0.0037925518
-0.021598084 0.075484447 0.71800005 0.69152123 0.45854583 -0.55815256 0.0032597813
-0.019716447 0.075800814 0.72100002 0.69614732 0.46047124 -0.55076772 0.0036322288
-0.017793721 0.076011971 0.72300005 0.70214993 0.45774251 -0.54539651 0.0034616508
-0.015859988 0.076223038 0.72500002 0.70976031 0.4554691 -0.53739011 0.0039811628
-0.013934395 0.076539144 0.72800004 0.71447057 0.45542499 -0.53114957 0.0045700083
-0.012008747 0.076960303 0.73200005 0.72077852 0.45316389 -0.52451968 0.004311841
-0.010061172 0.07738138 0.73600006 0.73301268 0.44552812 -0.51400107 0.0050459187
-0.008091676 0.07780236 0.74000001 0.74705273 0.43945357 -0.49879137 0.0054801661
-0.0060838689 0.078012973 0.74200004 0.76865447 0.42393216 -0.47901139 0.0048095677
-0.0040760259 0.078433774 0.74600005 0.78155881 0.41661909 -0.46432132 0.004409397
-0.0020435548 0.078749329 0.74900001 0.80329341 0.4048579 -0.43681771 0.0037225469
5.3431418e-06 0.079169936 0.75300002 0.83306813 0.38488272 -0.39731935 0.0041758353
0.0020788675 0.079695582 0.75800002 0.85493606 0.37081736 -0.36273789 0.0040667276
0.0042016511 0.080641694 0.76700002 0.88183612 0.33340552 -0.33347529 0.0029270784
0.0063818712 0.08169283 0.77700001 0.86566812 0.31083471 -0.39242882 0.0067758756
0.0085729798 0.082323313 0.78300005 0.83544642 0.3105444 -0.45342186 0.010012958
0.010783198 0.082848541 0.78800005 0.80378568 0.3221395 -0.50015467 0.010113478
0.012987891 0.083163381 0.79100001 0.77490294 0.3335132 -0.53693056 0.0085763242
0.0152281 0.083583266 0.79500002 0.7502619 0.34884351 -0.56161851 0.006406724
0.017424468 0.083687626 0.79600006 0.74364072 0.35209316 -0.56835628 0.0059076119
0.019626239 0.083791889 0.79700005 0.7417227 0.35668537 -0.56799906 0.0053993557
0.021888129 0.084106304 0.80000001 0.73520523 0.36874774 -0.56876916 0.0043198457
0.024196444 0.084525749 0.80400002 0.73589325 0.38438368 -0.557414 0.0038933386
0.026559383 0.08505021 0.80900002 0.74808842 0.39501199 -0.53322524 0.0043739774
0.028878439 0.08536429 0.81200004 0.75682038 0.4005968 -0.51647365 0.0038811974
0.031290397 0.085888512 0.81700003 0.77717811 0.40425149 -0.48226017 0.0029916978
0.033770621 0.086517744 0.82300001 0.80252653 0.41052246 -0.43292326 0.001605539
-0.20938987 0.06587214 0.64700001 0.99556965 0.038712732 0.085687816 0.08271528
-0.20436828 0.067112304 0.65900004 0.99212676 0.12513943 -0.0049438938 0.064591944
-0.20473909 0.067829087 0.66600001 0.99023443 0.13913423 -0.0088007832 0.065478429
-0.1968448 0.065796018 0.64600003 0.99565911 0.03182761 0.087464079 0.080502443
-0.19185612 0.065294534 0.64100003 0.99055904 0.0031278557 0.13705105 0.091191083
-0.20109782 0.069067679 0.67800003 0.99216992 0.12289333 -0.022272028 0.064952098
-0.19544433 0.067747518 0.66500002 0.99451846 0.10345741 -0.01515673 0.062625855
-0.20034418 0.07009501 0.68800002 0.98529881 0.078239746 0.15187076 0.067812838
-0.20776989 0.074077733 0.72700006 -0.6696254 0.052525349 -0.74083936 0.044534437
-0.20778582 0.074795768 0.73400003 -0.65903825 0.078028537 -0.74805081 0.016926957
-0.20552066 0.074698664 0.73300004 -0.64854419 0.077884682 -0.75718194 0.015341675
-0.20270541 0.07439775 0.73000002 -0.63929063 0.068998151 -0.7658633 0.02533979
-0.2001812 0.074198768 0.72800004 -0.61637259 0.070708327 -0.78427362 0.026116837
-0.1971231 0.07379593 0.72400004 -0.59973627 0.071064211 -0.79703599 0.030338902
-0.19435601 0.073494993 0.72100002 -0.59185344 0.057267137 -0.80400878 0.042234302
-0.19160499 0.073194064 0.71800005 -0.58399546 0.053057462 -0.81002104 0.04861068
-0.18939826 0.073096998 0.71700001 -0.57751954 0.061697446 -0.81404221 0.041378111
-0.18693537 0.072898 0.71500003 -0.56415468 0.063761964 -0.82320344 0.042691775
-0.18474181 0.072800949 0.71400005 -0.55478078 0.081748866 -0.82797068 0.028639121
-0.18255346 0.072703913 0.71300006 -0.55008703 0.085514061 -0.8307175 0.023782967
-0.18062359 0.07270886 0.71300006 -0.54522568 0.08777003 -0.83368182 0.015585349
-0.17844291 0.072611824 0.71200001 -0.54059666 0.088288851 -0.83663642 0.012251833
-0.17626742 0.072514795 0.71100003 -0.53677869 0.084089868 -0.83952224 0.0087246038
-0.17360666 0.072213776 0.708 -0.52797133 0.084137693 -0.84508413 0.004927373
-0.17120446 0.072014734 0.70600003 -0.5209102 0.083856873 -0.84948254 0.0023214321
-0.16881281 0.071815662 0.70400006 -0.50918269 0.08380308 -0.85656875 0.0036222783
-0.16666882 0.071718581 0.70300001 -0.49814674 0.082902603 -0.8631205 0.0037989453
-0.16429561 0.071519464 0.70100003 -0.48662859 0.08028388 -0.86991209 0.003925838
-0.16216469 0.071422368 0.70000005 -0.47371766 0.075170845 -0.87746274 0.003657514
-0.16026783 0.071427286 0.70000005 -0.46461344 0.07204698 -0.88257778 0.0035786652
-0.1581445 0.071330167 0.69900006 -0.44970286 0.069365479 -0.8904807 0.0032889438
-0.15624982 0.07133507 0.69900006 -0.44248453 0.067617103 -0.89422327 0.0035359771
-0.15391324 0.071135849 0.69700003 -0.42535394 0.064562902 -0.90272129 0.0024923049
-0.15202343 0.071140729 0.69700003 -0.41798568 0.064243764 -0.90617919 0.0022110119
-0.14991798 0.071043529 0.69600004 -0.40554017 0.06215509 -0.91196156 0.0028890963
-0.14781766 0.070946306 0.69500005 -0.39335698 0.061190862 -0.91734719 0.0022405104
-0.14551246 0.070746951 0.69300002 -0.38057122 0.058694907 -0.92288703 0.0013676042
-0.14342512 0.070649669 0.69200003 -0.37019879 0.056704488 -0.92722034 0
-0.14154749 0.070654459 0.69200003 -0.3653191 0.054556303 -0.92928231 0
-0.13946769 0.07055711 0.69100004 -0.35934275 0.05185473 -0.93176383 0
-0.13759218 0.070561849 0.69100004 -0.3557297 0.049191348 -0.93329346 0
-0.13551995 0.070464447 0.69000006 -0.35062727 0.045509022 -0.93540871 0
-0.13325916 0.070264868 0.68800002 -0.3425734 0.041146275 -0.93858957 0
-0.1313909 0.070269518 0.68800002 -0.33750734 0.039521154 -0.94049293 0.00034316577
-0.12933409 0.070172004 0.68700004 -0.33170345 0.038612474 -0.94259316 0.00052938098
-0.12746795 0.070176587 0.68700004 -0.32660457 0.038274333 -0.94438577 0.0013481622
-0.12541868 0.070078991 0.68600005 -0.32337981 0.040011421 -0.94542301 0.0030841187
-0.12355465 0.070083514 0.68600005 -0.32171553 0.041695792 -0.94591784 0.003429628
-0.12151294 0.069985837 0.68500006 -0.31660366 0.044056129 -0.94753426 0.0037803226
-0.11965105 0.069990285 0.68500006 -0.31116936 0.046701014 -0.94920635 0.0046814047
-0.11761689 0.069892518 0.68400002 -0.30183327 0.048027512 -0.95215023 0.0038646283
-0.11558789 0.0697947 0.68300003 -0.29271427 0.051485606 -0.95481288 0.0037943507
-0.11356402 0.069696836 0.68200004 -0.28411272 0.057182983 -0.95708418 0.004417283
-0.1115453 0.069598906 0.68100005 -0.27280587 0.062571459 -0.96003217 0.0047576744
-0.10953172 0.069500931 0.68000001 -0.26069927 0.071354181 -0.96277952 0.0054760077
-0.10720661 0.069198482 0.67700005 -0.24013574 0.079955623 -0.96744096 0.0060945889
-0.1053644 0.069202609 0.67700005 -0.22657523 0.087794684 -0.97002876 0.0063261962
-0.10367484 0.069308914 0.67800003 -0.21470697 0.095154993 -0.97203207 0.006425506
-0.10197952 0.069415174 0.67900002 -0.20474103 0.10236692 -0.97344857 0.0069845943
-0.099983573 0.069316939 0.67800003 -0.18984248 0.11233988 -0.97536641 0.0078998758
-0.097992763 0.069218636 0.67700005 -0.17536767 0.12233484 -0.97687274 0.010053673
-0.096149154 0.069222517 0.67700005 -0.15576781 0.13459484 -0.97858089 0.010849438
-0.094305255 0.069226347 0.67700005 -0.1402829 0.14493133 -0.97944659 0.011753457
-0.092461102 0.069230139 0.67700005 -0.12098491 0.15768319 -0.98005038 0.012332154
-0.090482794 0.069131598 0.67600006 -0.096994907 0.16937634 -0.98076689 0.01343323
-0.088771939 0.06923753 0.67700005 -0.074007012 0.18431206 -0.98007756 0.014778502
-0.086798556 0.06913887 0.67600006 -0.049190521 0.19579101 -0.97941113 0.016154148
-0.084830374 0.069040135 0.67500001 -0.022414118 0.21034124 -0.97737104 0.017389441
-0.082867377 0.06894134 0.67400002 0.0037191911 0.22423823 -0.97452724 0.016914386
-0.08115001 0.069047049 0.67500001 0.029592074 0.24005556 -0.97030801 0.016115157
-0.079426952 0.06915272 0.67600006 0.054508746 0.25599125 -0.96514112 0.017160455
-0.077583425 0.069156036 0.67600006 0.072764926 0.26845762 -0.96053928 0.017338563
-0.075627588 0.069056973 0.67500001 0.093939491 0.27941987 -0.95556265 0.016967745
-0.073786296 0.069060147 0.67500001 0.1221045 0.29433858 -0.94786882 0.016390355
-0.071944766 0.069063269 0.67500001 0.14883597 0.30538696 -0.9405247 0.014997404
-0.070206858 0.069168642 0.67600006 0.17977926 0.31971592 -0.93030161 0.015230825
-0.068362139 0.069171622 0.67600006 0.20617358 0.33148721 -0.92065668 0.015174402
-0.066713981 0.069379196 0.67800003 0.23803627 0.34597576 -0.90754586 0.014971714
-0.064863361 0.069382064 0.67800003 0.26632237 0.35900372 -0.89453268 0.01430216
-0.063105442 0.069487184 0.67900002 0.29633385 0.37046161 -0.88030928 0.013285612
-0.061251659 0.069489904 0.67900002 0.32149968 0.37780696 -0.86827409 0.011881148
-0.059660099 0.069799587 0.68200004 0.35931757 0.39329258 -0.84629309 0.01026187
-0.057882465 0.069904529 0.68300003 0.38670883 0.40066999 -0.83061415 0.0093165739
-0.056099165 0.070009395 0.68400002 0.41242722 0.40442991 -0.81629658 0.0083530582
-0.053993072 0.069704778 0.68100005 0.41865778 0.39737093 -0.81659168 0.0073111719
-0.052132837 0.069707133 0.68100005 0.4395898 0.39818144 -0.80511642 0.0064064241
-0.050346244 0.069811776 0.68200004 0.46247917 0.40480152 -0.78882742 0.0062343003
-0.048767284 0.070223458 0.68600005 0.50292927 0.41666237 -0.75726783 0.0057394961
-0.046961226 0.070327967 0.68700004 0.52213567 0.41889495 -0.74290055 0.0050902003
-0.045280777 0.070637159 0.69000006 0.54666543 0.42492691 -0.72152203 0.0049412502
-0.043520886 0.070843913 0.69200003 0.56651604 0.43007746 -0.70291746 0.0052802991
-0.041810066 0.07115297 0.69500005 0.58438557 0.43714672 -0.68366385 0.0050850287
-0.039852995 0.071052432 0.69400001 0.59123319 0.43123046 -0.68153036 0.0047746124
-0.038065325 0.07125897 0.69600004 0.60366303 0.43319845 -0.66927576 0.0038066013
-0.036214627 0.071363047 0.69700003 0.61627746 0.43373805 -0.65732276 0.0035584851
-0.034506004 0.0717742 0.70100003 0.63721752 0.43953162 -0.63306063 0.0028304232
-0.032728892 0.072082907 0.70400006 0.65378016 0.44571367 -0.61148262 0.0022373686
-0.030847749 0.072186761 0.70500004 0.66142166 0.44424051 -0.60429448 0.002555806
-0.02896102 0.072290517 0.70600003 0.66583025 0.44207287 -0.60103381 0.0026007383
-0.027107002 0.072496593 0.708 0.67370552 0.44011262 -0.59365118 0.0029080091
-0.025313055 0.072907381 0.71200001 0.68245226 0.44942218 -0.5764361 0.0039344551
-0.023431504 0.073113307 0.71400005 0.68916786 0.44663712 -0.5705812 0.0037733261
-0.021569006 0.073421538 0.71700001 0.6955958 0.44610119 -0.56315213 0.0031947636
-0.01969002 0.073729701 0.72000003 0.70345485 0.4452996 -0.55394906 0.0033853129
-0.017794551 0.074037775 0.72300005 0.70861977 0.44501388 -0.5475589 0.0035207102
-0.015860729 0.074243359 0.72500002 0.713817 0.44611263 -0.53986001 0.0038638026
-0.013915906 0.074448869 0.72700006 0.71910727 0.44555163 -0.53326195 0.0042981994
-0.011992902 0.074859075 0.73100001 0.7258094 0.4424344 -0.52673757 0.0037057342
-0.010047972 0.075269222 0.73500001 0.73670489 0.4385179 -0.5147503 0.004177955
-0.0080592502 0.075474456 0.73700005 0.74499148 0.43312451 -0.50733703 0.0041897395
-0.0060595558 0.0756796 0.73900002 0.76353508 0.42399782 -0.48707291 0.0047064866
-0.004048897 0.075884663 0.74100006 0.77532125 0.4152846 -0.47583154 0.0041965581
-0.0020327368 0.07629443 0.74500006 0.79221982 0.40570262 -0.4558433 0.0031571998
5.3221047e-06 0.076806515 0.75000006 0.82922506 0.38359052 -0.40650231 0.0041979612
0.0020734796 0.07742092 0.75600004 0.8530584 0.36806676 -0.36988947 0.0041556172
0.004190892 0.07834246 0.76500005 0.88539416 0.33010715 -0.3272714 0.0030173189
0.006365743 0.079366297 0.77500004 0.87310779 0.3022311 -0.38254297 0.0070097861
0.0085733822 0.080185212 0.78300005 0.83706337 0.30274329 -0.4557099 0.010820738
0.010770017 0.080594391 0.78700006 0.80493462 0.31083032 -0.50543523 0.010713681
0.012955658 0.080798648 0.78900003 0.77915168 0.32108435 -0.53835636 0.0097601106
0.01515219 0.081002817 0.79100001 0.76780403 0.32815409 -0.55026525 0.0091363713
0.0173815 0.081309281 0.79400003 0.74074835 0.34443703 -0.57676262 0.006733757
0.019651784 0.081718042 0.79800004 0.73557019 0.35539719 -0.57674032 0.005664554
0.021943875 0.082126692 0.80200005 0.73341191 0.37013364 -0.57018238 0.004314553
0.024197575 0.082330436 0.80400002 0.73431152 0.38028204 -0.5622918 0.0042129103
0.026494958 0.082636468 0.80700004 0.74108183 0.38793027 -0.54800349 0.0045542927
0.028773082 0.082839988 0.80900002 0.74890953 0.39158618 -0.53459781 0.0045283558
0.031176943 0.083350591 0.81400001 0.76766765 0.39646968 -0.50348592 0.0039195097
0.033567008 0.083758689 0.81800002 0.78801292 0.40416843 -0.46441734 0.0025938565
0.03619767 0.084678635 0.82700002 0.81892604 0.41267055 -0.39882714 0.0014177063
-0.21420661 0.064503245 0.65100002 0.99741632 0.035304591 0.062564045 0.080441006
-0.20957036 0.064711608 0.65300006 0.99777383 0.053049248 0.040413305 0.072679013
-0.21243532 0.067897923 0.68500006 0.96775013 0.18183017 0.17434877 0.080146939
-0.20812465 0.067108847 0.67700005 0.98995394 0.12352959 -0.068787105 0.06421186
-0.19898166 0.06473361 0.65300006 0.99720192 0.074750282 -0.00086765259 0.06995479
-0.1915607 0.063452505 0.64000005 0.98579407 -0.016962271 0.16709986 0.083019093
-0.19783929 0.06613344 0.66700006 0.99447495 0.10436427 -0.011301091 0.060078278
-0.20132662 0.067922339 0.68500006 0.98644578 0.087766461 0.13864233 0.058890086
-0.19918369 0.067827411 0.68400002 0.98989332 0.071311958 0.12257969 0.061137062
-0.20748873 0.07200136 0.72600001 -0.66280705 0.052223131 -0.7469669 0.038408529
-0.20750745 0.072700255 0.73300004 -0.6557107 0.078492232 -0.75092101 0.016993802
-0.20524505 0.072605766 0.73200005 -0.64664996 0.072855055 -0.7592997 0.014578488
-0.2024325 0.072312906 0.72900003 -0.63322216 0.063191772 -0.77138609 0.024697654
-0.20018598 0.072218455 0.72800004 -0.62345225 0.062887214 -0.77932829 0.026865477
-0.19740015 0.071925603 0.72500002 -0.60583252 0.068223014 -0.79266173 0.02402015
-0.19463041 0.07163275 0.72200006 -0.59076113 0.070636474 -0.80374855 0.026043391
-0.19187666 0.071339868 0.71900004 -0.58580649 0.064555936 -0.80787581 0.039138284
-0.18940312 0.071146205 0.71700001 -0.57800686 0.062281258 -0.81365174 0.039049
-0.18694022 0.07095255 0.71500003 -0.5719896 0.079105683 -0.81643748 0.032845818
-0.18474668 0.070858113 0.71400005 -0.55952418 0.082402304 -0.82470757 0.031434868
-0.18255834 0.0707637 0.71300006 -0.54763162 0.086006626 -0.83228749 0.027111197
-0.18012182 0.070570022 0.71100003 -0.5394522 0.090063624 -0.83718568 0.019681109
-0.17794657 0.070475601 0.71000004 -0.53587604 0.087305404 -0.83977056 0.011946055
-0.1757765 0.070381172 0.70900005 -0.52939212 0.088726155 -0.84372479 0.0095668882
-0.17361158 0.070286743 0.708 -0.53200364 0.088680767 -0.84208542 0.002149337
-0.17145184 0.070192307 0.70700002 -0.52353549 0.088788003 -0.8473649 0.002849086
-0.16905749 0.069998585 0.70500004 -0.51210916 0.087480605 -0.85445386 0.0031616576
-0.1666737 0.069804832 0.70300001 -0.49635983 0.086622685 -0.86378437 0.0034449501
-0.16453488 0.069710366 0.70200002 -0.48696384 0.083106197 -0.86945933 0.0037069919
-0.16216956 0.069516577 0.70000005 -0.47096997 0.07823091 -0.87867355 0.003588133
-0.16004375 0.069422074 0.69900006 -0.45947731 0.074642271 -0.88504761 0.0039177602
-0.15792309 0.069327548 0.69800001 -0.44624996 0.07098686 -0.89208853 0.0038507921
-0.15603113 0.069332346 0.69800001 -0.43673304 0.069847316 -0.89687544 0.0034412991
-0.15413891 0.069337137 0.69800001 -0.42646876 0.068398654 -0.90191239 0.0026502234
-0.15202828 0.069242574 0.69700003 -0.41460362 0.066533767 -0.90756655 0.0017583445
-0.14992279 0.069147989 0.69600004 -0.40253878 0.064290255 -0.91314256 0.0020100125
-0.14760973 0.068954013 0.69400001 -0.38964438 0.064438596 -0.91870832 0.0021992463
-0.14530726 0.068760015 0.69200003 -0.37576228 0.063118182 -0.92456412 0.00061672641
-0.14301534 0.068565965 0.69000006 -0.36490029 0.06123957 -0.92903042 0
-0.14134765 0.068669997 0.69100004 -0.36065489 0.058658902 -0.93085295 0
-0.13927056 0.068575278 0.69000006 -0.35404575 0.053951088 -0.9336707 0
-0.13739772 0.068579897 0.69000006 -0.35145101 0.050519355 -0.93484217 0
-0.13532816 0.068485104 0.68900001 -0.34626943 0.046201281 -0.93699676 0
-0.13326377 0.06839028 0.68800002 -0.34121659 0.042896137 -0.93900543 0.00029893813
-0.13158646 0.068494231 0.68900001 -0.33820194 0.042270105 -0.94012374 0.0008561638
-0.12933864 0.068299927 0.68700004 -0.33168322 0.04129016 -0.94248682 0.00099167449
-0.12747248 0.068304412 0.68700004 -0.32700273 0.041119773 -0.94412833 0.0011405912
-0.12524033 0.068110012 0.68500006 -0.32512432 0.043101538 -0.9446885 0.0027270983
-0.12319889 0.068014987 0.68400002 -0.32231632 0.045284975 -0.94554824 0.0047912584
-0.12133995 0.06801936 0.68400002 -0.31742787 0.047081787 -0.94711292 0.0047909855
-0.11930607 0.067924254 0.68300003 -0.30947807 0.047621164 -0.94971341 0.0044371858
-0.11744928 0.06792856 0.68300003 -0.30214566 0.048349552 -0.95203483 0.0036134729
-0.11542295 0.067833364 0.68200004 -0.29367939 0.049802776 -0.95460576 0.0031761199
-0.11356828 0.067837588 0.68200004 -0.2864705 0.052611955 -0.95664346 0.0025787582
-0.11154951 0.067742303 0.68100005 -0.27818501 0.05778661 -0.95878768 0.0037103933
-0.10953588 0.067646958 0.68000001 -0.26719859 0.065266505 -0.9614287 0.0050018537
-0.10721069 0.067352585 0.67700005 -0.24753216 0.075227201 -0.96595484 0.0056843036
-0.10536847 0.067356616 0.67700005 -0.23479843 0.081456318 -0.96862507 0.0056267013
-0.10352592 0.067360595 0.67700005 -0.22093855 0.088998467 -0.97121853 0.0061398735
-0.1019835 0.067563541 0.67900002 -0.21333022 0.095395833 -0.97231162 0.0065531819
-0.099840008 0.067368433 0.67700005 -0.19830596 0.10534699 -0.97446233 0.0085745985
-0.097851887 0.067272767 0.67600006 -0.18345471 0.11485743 -0.97629511 0.0096448157
-0.096152969 0.06737607 0.67700005 -0.16770284 0.12513463 -0.97786361 0.010459313
-0.094309017 0.067379825 0.67700005 -0.15127571 0.13768539 -0.97885567 0.012122994
-0.092464805 0.06738352 0.67700005 -0.1314074 0.14835767 -0.98016429 0.012208974
-0.090486452 0.067287624 0.67600006 -0.11246868 0.15846929 -0.98093742 0.013552592
-0.088644408 0.067291208 0.67600006 -0.087788992 0.17380467 -0.98085928 0.015594846
-0.086673692 0.067195185 0.67500001 -0.062243327 0.18777704 -0.98023748 0.016790438
-0.084708169 0.067099102 0.67400002 -0.038035452 0.20019673 -0.97901714 0.017435031
-0.082747832 0.067002945 0.67300004 -0.010949464 0.21121946 -0.97737736 0.016603692
-0.080912925 0.067006283 0.67300004 0.0078387354 0.22709139 -0.97384191 0.016233632
-0.079312757 0.067208707 0.67500001 0.038241282 0.24517764 -0.96872365 0.016641302
-0.077471882 0.067211933 0.67500001 0.056073304 0.25558785 -0.9651584 0.017046431
-0.075406678 0.067015946 0.67300004 0.07731887 0.26540536 -0.96103156 0.016468681
-0.07357078 0.067019045 0.67300004 0.10571373 0.27741277 -0.95491713 0.016092472
-0.071734637 0.067022078 0.67300004 0.13044649 0.28769204 -0.9487977 0.014922403
-0.070002124 0.067124642 0.67400002 0.16090924 0.30335626 -0.93919289 0.01520958
-0.068263918 0.067227148 0.67500001 0.19017512 0.3176592 -0.92893815 0.015409718
-0.066520043 0.0673296 0.67600006 0.21971956 0.33317116 -0.91690797 0.015191617
-0.064770468 0.067431986 0.67700005 0.2527031 0.34601671 -0.90355605 0.014973469
-0.062922284 0.067434706 0.67700005 0.27979758 0.35267296 -0.89293623 0.013773708
-0.061254315 0.067636572 0.67900002 0.31662503 0.36647639 -0.87489647 0.012443613
-0.059487734 0.067738786 0.68000001 0.34515584 0.37411347 -0.86075932 0.011306638
-0.057715487 0.067840919 0.68100005 0.37268081 0.38190132 -0.84573066 0.0093622413
-0.055937581 0.067942999 0.68200004 0.4000468 0.3869552 -0.83079964 0.0080680493
-0.053916153 0.067746133 0.68000001 0.41224965 0.38408679 -0.82615221 0.0077640601
-0.052135136 0.067848057 0.68100005 0.43629023 0.38844946 -0.81163901 0.0070268391
-0.050274648 0.067850292 0.68100005 0.4550789 0.39023957 -0.80038506 0.0056630969
-0.048627257 0.068151355 0.68400002 0.49192551 0.39909449 -0.77377832 0.0048557753
-0.046894949 0.068352729 0.68600005 0.51771712 0.40487048 -0.75369018 0.0046018651
-0.045217164 0.068653673 0.68900001 0.54304981 0.41378379 -0.73067081 0.0045285816
-0.043459937 0.068854921 0.69100004 0.56190377 0.41798025 -0.71383232 0.004807834
-0.041691612 0.069056094 0.69300002 0.57999718 0.42186597 -0.69687325 0.0048382529
-0.039797354 0.069057889 0.69300002 0.59038866 0.41950569 -0.68953335 0.0048267734
-0.038012341 0.069258913 0.69500005 0.60577977 0.42190906 -0.67455435 0.0042746132
-0.036164299 0.069360219 0.69600004 0.6159426 0.41962424 -0.66673112 0.0036683138
-0.03440911 0.069660768 0.69900006 0.63538998 0.42424983 -0.64520675 0.0031492831
-0.032544408 0.069761917 0.70000005 0.64710516 0.42481616 -0.63307685 0.0027879595
-0.030717872 0.069962651 0.70200002 0.65890098 0.42534134 -0.62043083 0.0015970966
-0.028880289 0.070163317 0.70400006 0.66781938 0.42828968 -0.60875714 0.0022564062
-0.027069947 0.070463553 0.70700002 0.67578089 0.43056026 -0.5982793 0.0023353037
-0.025278654 0.070863396 0.71100003 0.68457967 0.43330616 -0.58617097 0.0030882028
-0.023432573 0.071163505 0.71400005 0.69366235 0.43548289 -0.57374835 0.0033275404
-0.02156999 0.071463518 0.71700001 0.701442 0.43575102 -0.56400383 0.0032465584
-0.01966357 0.071663797 0.71900004 0.70810634 0.43331987 -0.55751163 0.0031466775
-0.017746139 0.071863987 0.72100002 0.71270388 0.43172958 -0.55286771 0.0035051834
-0.015817698 0.072064087 0.72300005 0.71594882 0.43406102 -0.54681659 0.0037827264
-0.013897399 0.072363771 0.72600001 0.72452307 0.43322557 -0.53608 0.0043361429
-0.011960639 0.072663389 0.72900003 0.72941375 0.43201157 -0.53039765 0.0032958405
-0.010034761 0.073162265 0.73400003 0.74112791 0.42845184 -0.51687372 0.0034949556
-0.0080486834 0.07336203 0.73600006 0.74725717 0.42681953 -0.50934452 0.0038619051
-0.0060516335 0.073561706 0.73800004 0.76912493 0.41295102 -0.48776874 0.0039780461
-0.0040326891 0.073561929 0.73800004 0.77522612 0.40921965 -0.48121068 0.0041190921
-0.0020219155 0.0738611 0.74100006 0.78736252 0.4026401 -0.46684179 0.0034663177
5.301059e-06 0.074459203 0.74700004 0.81670719 0.38402081 -0.43071723 0.0035671564
0.0020653463 0.075057223 0.75300002 0.84982127 0.36586586 -0.37940237 0.0044108867
0.0041691693 0.075854503 0.76100004 0.88501281 0.33054933 -0.32785597 0.0036874376
0.0063249632 0.076751359 0.77000004 0.8873623 0.3044216 -0.34628847 0.0048776255
0.0085628247 0.077947155 0.78200006 0.84176564 0.29784778 -0.45024139 0.01135373
0.010770512 0.078445099 0.78700006 0.80232102 0.30941784 -0.51043272 0.011484691
0.01295625 0.078643911 0.78900003 0.77667457 0.31700492 -0.54432017 0.010234394
0.015172041 0.078942306 0.79200006 0.75926292 0.32988772 -0.56097597 0.0092282435
0.017382294 0.079140916 0.79400003 0.73944843 0.34032097 -0.58085948 0.0075869323
0.019628054 0.079439096 0.79700005 0.73006076 0.34959522 -0.58719206 0.0062661483
0.021890149 0.079737172 0.80000001 0.7270869 0.36140573 -0.58372122 0.0050928965
0.024168579 0.08003515 0.80300003 0.73047829 0.37319911 -0.57194752 0.0048453901
0.026430497 0.080233358 0.80500007 0.73483843 0.37926272 -0.56229204 0.0050059748
0.028738821 0.080531113 0.80800003 0.7446022 0.38394523 -0.54603451 0.005296967
0.031063456 0.080828771 0.81100005 0.75889951 0.39188844 -0.5200913 0.004940358
0.033486456 0.08132565 0.81600004 0.78193545 0.40000862 -0.47809005 0.0034073344
0.03602422 0.082021736 0.82300001 0.80941361 0.40735611 -0.42297828 0.0014122536
-0.19806919 0.058981795 0.61200005 0.98546088 -0.10850851 0.13073887 0.12234595
-0.20636439 0.061972767 0.64300001 0.98677516 -0.016443206 0.16125898 0.084356368
-0.20303558 0.061494246 0.63800001 0.97184068 -0.0071100616 0.2355317 0.081775509
-0.2057289 0.062847152 0.65200001 0.99880016 0.043345042 0.02278926 0.070342436
-0.20396693 0.062850714 0.65200001 0.99838686 0.051450755 0.024011957 0.069812953
-0.20902775 0.064975187 0.67400002 0.99168861 0.11029089 -0.066254191 0.060264263
-0.2099731 0.065846659 0.68300003 0.99027061 0.11967943 0.070999749 0.066163458
-0.19654766 0.062186837 0.64500004 0.99548328 0.024562551 0.091704004 0.079458326
-0.19329433 0.061708473 0.64000005 0.9853791 -0.024131801 0.16865845 0.082638487
-0.19246246 0.0620015 0.64300001 0.99171942 -0.019698093 0.12690349 0.08678402
-0.19962297 0.064898245 0.67300004 0.99518853 0.093831159 -0.028204443 0.060364768
-0.1995673 0.065480895 0.67900002 0.99566108 0.086000957 0.03553541 0.059184421
-0.1994791 0.066063672 0.68500006 0.98699272 0.082711637 0.13785553 0.055808246
-0.19964685 0.066743001 0.69200003 0.8942703 0.17593551 -0.41149417 0.089441143
-0.20635007 0.069640949 0.72200006 -0.66243845 0.012145997 -0.74901783 0.066736832
-0.20694587 0.070513584 0.73100001 -0.64821923 0.070593975 -0.75817436 0.015680488
-0.20468891 0.070421711 0.73000002 -0.63975877 0.067949183 -0.76556623 0.014041132
-0.20243719 0.070329852 0.72900003 -0.6327821 0.065385722 -0.77156436 0.016467918
-0.19964071 0.070045054 0.72600001 -0.61666793 0.058694884 -0.78503221 0.026466828
