# .PCD v0.7 - Point Cloud Data file format
VERSION 0.7
FIELDS x y z normal_x normal_y normal_z curvature
SIZE 4 4 4 4 4 4 4
TYPE F F F F F F F
COUNT 1 1 1 1 1 1 1
WIDTH 578
HEIGHT 1
VIEWPOINT 0 0 0 1 0 0 0
POINTS 578
DATA ascii
0.1338585 0.025763301 0.65400004 0.45852715 -0.00093311054 -0.88867986 0.0032702927
0.13563333 0.025761425 0.65400004 0.46285504 -0.0012247522 -0.88643312 0.0034329991
0.13761798 0.025798928 0.65500003 0.46690926 -0.0032601224 -0.88429922 0.0030541942
0.13982056 0.025875803 0.65700001 0.47498348 -0.0061477842 -0.87997329 0.0032443632
0.14203368 0.025952658 0.65900004 0.48418179 -0.0086198431 -0.87492496 0.0031558643
0.1438209 0.025950741 0.65900004 0.4875164 -0.0093828198 -0.87306345 0.0031217309
0.14604971 0.02602757 0.66100001 0.49943268 -0.014049946 -0.86623877 0.0032454554
0.14806543 0.026065014 0.66200006 0.50702965 -0.018407376 -0.86173195 0.0034338406
0.15008628 0.026102446 0.66300005 0.51641798 -0.022474475 -0.85604167 0.0030668203
0.15234134 0.026179234 0.66500002 0.53840995 -0.027977576 -0.84221852 0.0038476069
0.15460697 0.02625601 0.66700006 0.56392586 -0.035887286 -0.82504529 0.0048855622
0.15664867 0.026293414 0.66800004 0.58308095 -0.041569475 -0.81134987 0.0057609617
0.15893269 0.026370166 0.67000002 0.6023286 -0.05176324 -0.79656816 0.0062471791
0.16098736 0.026407555 0.671 0.61181533 -0.057260022 -0.78892535 0.0059510772
0.16304719 0.026444936 0.67200005 0.62066841 -0.063224666 -0.78151983 0.0056680185
0.16486685 0.026442965 0.67200005 0.62837696 -0.067055397 -0.77501351 0.0061145439
0.16743034 0.026559032 0.67500001 0.64814425 -0.081344448 -0.75716054 0.0060530175
0.16975911 0.026635747 0.67700005 0.66064507 -0.089636803 -0.74532765 0.0053748698
0.17311226 0.026869811 0.68300003 0.69048053 -0.10066946 -0.71631163 0.0041187047
0.17572919 0.026985837 0.68600005 0.7094667 -0.1074874 -0.69649369 0.0038369212
0.17758545 0.026983844 0.68600005 0.71524954 -0.11060891 -0.69006068 0.0034280855
-0.14896779 0.022488935 0.61400002 0.85474974 0.47044551 -0.2192806 0.096220098
-0.13986772 0.021355094 0.583 0.86945575 0.49076 0.05657972 0.074859545
-0.14113504 0.021796281 0.59500003 0.88068587 0.45798916 -0.12098882 0.073681772
-0.14350957 0.02242071 0.61200005 0.90298522 0.40167087 -0.15257247 0.087560378
-0.13652039 0.021579714 0.58900005 0.87300265 0.48674956 -0.03068096 0.074831069
-0.13129067 0.021253146 0.58000004 0.86374784 0.49970558 0.065069236 0.074484818
-0.12860022 0.021071501 0.57500005 0.84315312 0.53354907 0.06646958 0.079797201
-0.1221806 0.020266794 0.55300003 -0.26259744 -0.9457292 -0.19141296 0.099790677
-0.12931071 0.021992546 0.60000002 0.91510952 0.37782621 -0.14079042 0.067934707
-0.12938568 0.022287427 0.60800004 0.93441421 0.33779299 -0.11298665 0.080320463
-0.12815642 0.022362385 0.61000001 0.9368543 0.33129311 -0.11202192 0.080489054
-0.12898982 0.022803972 0.62200004 0.92994148 0.33871168 -0.14311936 0.08987496
-0.13078113 0.023428941 0.63900006 0.85241002 0.4216412 -0.3092182 0.06760639
-0.12924865 0.023467313 0.64000005 0.84161562 0.42928138 -0.32772025 0.055745009
-0.12691349 0.023358999 0.63700002 0.84049225 0.4214361 -0.34053537 0.059332266
-0.13147257 0.024534216 0.66900003 -0.7627852 -0.094840892 -0.63965929 0.057019904
-0.13275668 0.025122784 0.68500006 -0.80535823 -0.084101677 -0.58679205 0.018110108
-0.13108721 0.025161253 0.68600005 -0.80554271 -0.084112599 -0.58653736 0.01812741
-0.12828174 0.024979629 0.68100005 -0.76619577 -0.077082425 -0.63796741 0.020171583
-0.12568879 0.02483465 0.67700005 -0.73189276 -0.074944124 -0.67728591 0.026080396
-0.12293431 0.024652956 0.67200005 -0.69129968 -0.070212029 -0.71914881 0.036958847
-0.12056714 0.0245446 0.66900003 -0.66883552 -0.064462952 -0.74061036 0.037103653
-0.11839345 0.024472903 0.66700006 -0.64712334 -0.054663986 -0.76042306 0.041060038
-0.11640511 0.02443788 0.66600001 -0.62711853 -0.050649248 -0.77727544 0.03979452
-0.11424983 0.024366142 0.66400003 -0.58869028 -0.039679091 -0.80738425 0.051123276
-0.11210513 0.02429438 0.66200006 -0.53918678 -0.027938925 -0.84172261 0.053822719
-0.1101376 0.024259293 0.66100001 -0.51278228 -0.01680428 -0.85835415 0.043726072
-0.10833914 0.024260892 0.66100001 -0.50337797 -0.0097541781 -0.86401129 0.027065845
-0.10637917 0.024225768 0.66000003 -0.48518854 -0.00066848338 -0.87440926 0.018630989
-0.10442434 0.024190621 0.65900004 -0.47041285 0.0048616249 -0.88243306 0.015039642
-0.10247466 0.024155457 0.65800005 -0.44921446 0.01427994 -0.89330989 0.01261097
-0.1005301 0.024120266 0.65700001 -0.43552202 0.023251059 -0.89987773 0.0072188145
-0.098440409 0.024048341 0.65500003 -0.41230613 0.026653191 -0.91065544 0.0067198267
-0.096656471 0.024049822 0.65500003 -0.40477917 0.02926467 -0.91394609 0.006548129
-0.094582528 0.023977846 0.65300006 -0.38726395 0.032105427 -0.92140979 0.0050979797
-0.092519194 0.02390584 0.65100002 -0.37409833 0.035579789 -0.92670631 0.0035646004
-0.09060587 0.023870535 0.65000004 -0.36581489 0.03930435 -0.92985725 0.0028570092
-0.088834375 0.023871925 0.65000004 -0.36090934 0.043245047 -0.93159771 0.0033329099
-0.087062597 0.023873297 0.65000004 -0.35726386 0.044358201 -0.93294954 0.0035999473
-0.085421771 0.023911381 0.65100002 -0.35510916 0.046070173 -0.93368894 0.003506517
-0.083646715 0.023912715 0.65100002 -0.35170141 0.047949016 -0.93488336 0.0031865593
-0.081997156 0.023950759 0.65200001 -0.34927887 0.049358163 -0.93571794 0.0027773113
-0.080095805 0.023915317 0.65100002 -0.34466726 0.05424941 -0.93715608 0.0025511065
-0.078199647 0.02387985 0.65000004 -0.33992833 0.056309626 -0.9387641 0.0022478418
-0.076308675 0.023844352 0.64900005 -0.33550116 0.058859982 -0.94019914 0.0018249848
-0.074537754 0.02384557 0.64900005 -0.33093521 0.059052657 -0.94180399 0.0020295563
-0.072654456 0.02381002 0.648 -0.32357958 0.058987759 -0.94436049 0.0034340993
-0.070776373 0.023774443 0.64700001 -0.31691709 0.058864802 -0.94662482 0.0032244613
-0.068690188 0.023665344 0.64400005 -0.30804235 0.058796354 -0.94955403 0.0043992777
-0.067035861 0.023703206 0.64500004 -0.30625948 0.058586705 -0.95014352 0.0045804572
-0.065173447 0.02366755 0.64400005 -0.30494258 0.059452582 -0.9505133 0.0047181249
-0.063414723 0.023668611 0.64400005 -0.30392483 0.062016673 -0.95067537 0.0045311279
-0.06146431 0.023596143 0.64200002 -0.30131215 0.06401448 -0.95137429 0.0054835407
-0.059617609 0.023560399 0.64100003 -0.29928631 0.066007204 -0.95187747 0.0062578106
-0.057776153 0.023524625 0.64000005 -0.29469067 0.06775672 -0.95318753 0.0065738941
-0.056027502 0.023525581 0.64000005 -0.29001787 0.067752369 -0.95461994 0.0076201642
-0.054278638 0.023526508 0.64000005 -0.28677401 0.068718478 -0.95553046 0.0085679404
-0.052529581 0.02352741 0.64000005 -0.28331509 0.069340281 -0.95651686 0.0087214923
-0.050621647 0.023454759 0.63800001 -0.27520245 0.06947232 -0.95887285 0.0069104801
-0.048877675 0.023455603 0.63800001 -0.26518032 0.069582738 -0.96168476 0.0065612816
-0.047059651 0.023419658 0.63700002 -0.25019547 0.070234701 -0.96564448 0.006536406
-0.045389201 0.023457214 0.63800001 -0.23717563 0.070906892 -0.96887559 0.0065730256
-0.043576304 0.023421209 0.63700002 -0.21540356 0.070648305 -0.97396618 0.0071009826
-0.041703034 0.023348406 0.63500005 -0.19455944 0.068783514 -0.97847611 0.010092204
-0.039840546 0.023275567 0.63300002 -0.17269777 0.06583523 -0.98277223 0.0098668737
-0.038049046 0.023239467 0.63200003 -0.15112305 0.064455964 -0.98641133 0.012308178
-0.03637781 0.023276882 0.63300002 -0.13047631 0.064814314 -0.98933065 0.013157386
-0.034591503 0.023240725 0.63200003 -0.10634629 0.065006204 -0.99220198 0.014486433
-0.032862537 0.023241311 0.63200003 -0.085965939 0.067329682 -0.99402046 0.015377592
-0.031133441 0.02324187 0.63200003 -0.063587867 0.06920138 -0.99557412 0.015159434
-0.029450746 0.02327917 0.63300002 -0.042724542 0.069789283 -0.9966464 0.015752679
-0.02780626 0.023353225 0.63500005 -0.017662559 0.070136622 -0.99738103 0.017540054
-0.02602756 0.023316918 0.634 0.010219654 0.069786452 -0.99750954 0.017274462
-0.024292547 0.023317358 0.634 0.036956307 0.070991419 -0.99679208 0.017090958
-0.022486283 0.023244211 0.63200003 0.061236452 0.071983941 -0.99552417 0.017292041
-0.020822247 0.023318149 0.634 0.091914549 0.072638467 -0.99311399 0.015689753
-0.019056868 0.023281723 0.63300002 0.11876708 0.0716234 -0.99033552 0.015734799
-0.017296886 0.023245262 0.63200003 0.14444788 0.073824391 -0.98675472 0.014388517
-0.015591573 0.023282332 0.63300002 0.17282391 0.07301224 -0.98224288 0.013277562
-0.013880724 0.023319373 0.634 0.2015266 0.072136939 -0.97682297 0.01178671
-0.012183505 0.023393169 0.63600004 0.22884303 0.070804924 -0.97088492 0.011205832
-0.010475284 0.023466928 0.63800001 0.26053086 0.069473967 -0.96296263 0.0098987371
-0.0087287128 0.023467099 0.63800001 0.28216261 0.067969136 -0.95695579 0.0087710191
-0.0069930498 0.023504024 0.63900006 0.30460417 0.06626153 -0.95017147 0.0076331217
-0.0052354699 0.023467347 0.63800001 0.3197943 0.065722354 -0.94520485 0.007335383
-0.0034888149 0.023467425 0.63800001 0.33314571 0.063747115 -0.94071794 0.0064171762
-0.0017421453 0.02346747 0.63800001 0.34367675 0.060912352 -0.93711048 0.0055691414
4.5450747e-06 0.023541054 0.64000005 0.35442519 0.056613762 -0.93336892 0.0058906721
0.0017649311 0.023651384 0.64300001 0.35372487 0.053831581 -0.93379915 0.0053284098
0.0035362546 0.023724906 0.64500004 0.35123459 0.050153852 -0.93494326 0.0051994137
0.0053020739 0.023724826 0.64500004 0.3482019 0.048463941 -0.93616593 0.005357937
0.0070459559 0.023651149 0.64300001 0.34504899 0.048488282 -0.93733132 0.0058285156
0.008819948 0.023687795 0.64400005 0.34357548 0.047243115 -0.93793601 0.0073844083
0.010582947 0.023687622 0.64400005 0.33193645 0.048006784 -0.94207937 0.0080386307
0.012384242 0.023760984 0.64600003 0.31828147 0.049763098 -0.94668919 0.0092440052
0.014130719 0.023723969 0.64500004 0.30167964 0.05027521 -0.95208293 0.010519229
0.015945598 0.023797266 0.64700001 0.28050566 0.051001076 -0.95849645 0.011676842
0.017743982 0.023833746 0.648 0.25467423 0.052381977 -0.96560711 0.014501246
0.019517653 0.02383342 0.648 0.223379 0.05401212 -0.97323406 0.016054442
0.021291247 0.023833061 0.648 0.18675679 0.055852003 -0.98081732 0.018241875
0.023100348 0.023869451 0.64900005 0.14742522 0.058946054 -0.98731512 0.02056106
0.024991501 0.023979366 0.65200001 0.099509016 0.064717546 -0.99292982 0.021507556
0.02677577 0.023978911 0.65200001 0.061663214 0.066731818 -0.99586374 0.02353614
0.028559936 0.023978427 0.65200001 0.016658213 0.069872588 -0.99741685 0.022762189
0.030204374 0.023867587 0.64900005 -0.012338133 0.073522821 -0.99721718 0.023162918
0.032029379 0.023903819 0.65000004 -0.048228096 0.072173715 -0.99622536 0.022300858
0.033807721 0.023903245 0.65000004 -0.083148465 0.073536746 -0.99382025 0.0210636
0.035585936 0.023902643 0.65000004 -0.11782745 0.075149633 -0.99018651 0.019641193
0.037364013 0.02390201 0.65000004 -0.15249743 0.078806803 -0.98515683 0.018886501
0.039021507 0.023827806 0.648 -0.1804692 0.080829658 -0.98025376 0.015300851
0.040856782 0.023863887 0.64900005 -0.20943335 0.083586812 -0.97424376 0.013526618
0.042500298 0.023789627 0.64700001 -0.2390312 0.08386784 -0.96738321 0.010785109
0.044269569 0.023788882 0.64700001 -0.2615487 0.084353007 -0.96149725 0.009128361
0.045967512 0.023751343 0.64600003 -0.274914 0.0825302 -0.95792013 0.0071385344
0.047733709 0.023750542 0.64600003 -0.2861619 0.081418067 -0.95471591 0.0062647159
0.049346484 0.023676189 0.64400005 -0.29663029 0.079591185 -0.95166999 0.0055520656
0.050948128 0.023601808 0.64200002 -0.30540055 0.077608846 -0.94905603 0.0053036511
0.052702848 0.023600928 0.64200002 -0.30856052 0.078651689 -0.94794744 0.0063198688
0.054542184 0.023636781 0.64300001 -0.30454609 0.077771954 -0.94931722 0.0065524569
0.056299236 0.023635847 0.64300001 -0.29776439 0.076627187 -0.95155907 0.0061477171
0.057875514 0.023561377 0.64100003 -0.28542399 0.074167006 -0.95552725 0.0076767118
0.059626691 0.023560394 0.64100003 -0.26984668 0.071733914 -0.96022761 0.0072556306
0.061281901 0.023522628 0.64000005 -0.24837071 0.069170237 -0.96619231 0.0077588381
0.063029915 0.023521598 0.64000005 -0.22703791 0.065804951 -0.97166014 0.0082495483
0.064676493 0.02348379 0.63900006 -0.20764302 0.063483059 -0.97614253 0.0090387864
0.066421323 0.023482706 0.63900006 -0.18560483 0.058834203 -0.98086154 0.010259275
0.068059243 0.023444854 0.63800001 -0.16416575 0.05517979 -0.9848882 0.01071563
0.069691479 0.023406979 0.63700002 -0.14482699 0.048639398 -0.98826081 0.010596613
0.071430147 0.023405833 0.63700002 -0.11805097 0.041772801 -0.99212855 0.0093924962
0.073168568 0.023404658 0.63700002 -0.093293868 0.035842601 -0.99499327 0.0086388486
0.074789152 0.023366723 0.63600004 -0.070872605 0.030159118 -0.9970293 0.0092213489
0.07652434 0.023365505 0.63600004 -0.043765631 0.022171948 -0.99879581 0.010246815
0.078013182 0.023290794 0.634 -0.021134069 0.015612757 -0.99965477 0.010365396
0.07986819 0.023326274 0.63500005 0.0047689313 0.0074815396 -0.9999606 0.010898728
0.081728384 0.023361726 0.63600004 0.029892836 0.0022971444 -0.9995504 0.010000592
0.083724976 0.023433879 0.63800001 0.054610915 0.00084865926 -0.99850738 0.010678313
0.085330367 0.023395825 0.63700002 0.080345117 -0.0018354858 -0.99676538 0.0092119044
0.086930014 0.023357755 0.63600004 0.10136502 -0.0034830582 -0.99484318 0.0081068939
0.08894217 0.023429837 0.63800001 0.12708017 -0.0071464432 -0.99186671 0.0080008786
0.090822801 0.023465173 0.63900006 0.1488317 -0.0093440916 -0.98881835 0.0069032125
0.092853457 0.023537204 0.64100003 0.17301308 -0.010786691 -0.98486048 0.0080135036
0.09430442 0.023462337 0.63900006 0.18620114 -0.013605833 -0.9824174 0.0078380266
0.096044794 0.023460893 0.63900006 0.20289858 -0.015320541 -0.9790799 0.0064973012
0.097784892 0.023459431 0.63900006 0.22040528 -0.016836114 -0.97526306 0.0059750229
0.099680431 0.023494661 0.64000005 0.24069768 -0.017057717 -0.97045028 0.0066337702
0.1017396 0.023566576 0.64200002 0.26130924 -0.016433654 -0.96511519 0.0062381439
0.10348698 0.023565058 0.64200002 0.27708834 -0.016687807 -0.96069956 0.0058676219
0.1055619 0.023636928 0.64400005 0.29855233 -0.016215686 -0.95425552 0.0047259191
0.10698085 0.023561969 0.64200002 0.30351877 -0.016040811 -0.95269042 0.0046067755
0.10906605 0.0236338 0.64400005 0.31972164 -0.013765736 -0.94741154 0.0036898754
0.11081766 0.023632215 0.64400005 0.33002511 -0.012292745 -0.94389206 0.0028995087
0.11274377 0.023667308 0.64500004 0.34483847 -0.01040804 -0.93860435 0.0025374605
0.11467502 0.023702383 0.64600003 0.35875303 -0.0068154782 -0.9334076 0.0023623477
0.11643119 0.023700755 0.64600003 0.3683539 -0.0050070519 -0.92967218 0.002516903
0.11855292 0.023772484 0.648 0.38400903 -0.0025947432 -0.92332572 0.0032525121
0.12049958 0.023807507 0.64900005 0.39735445 -0.0017860427 -0.91766346 0.0037306123
0.12226297 0.023805832 0.64900005 0.40788075 3.0402742e-05 -0.91303527 0.0038644238
0.12421715 0.023840826 0.65000004 0.41539088 0.0017870503 -0.90964121 0.0031391822
0.12578882 0.023802454 0.64900005 0.41968471 0.0019751759 -0.90766782 0.0027822026
0.12814091 0.023910768 0.65200001 0.4328444 0.0017035321 -0.90146697 0.0023171592
0.12991123 0.023909047 0.65200001 0.43913689 0.0032107001 -0.89841437 0.0022106657
0.13208517 0.023980653 0.65400004 0.45245376 0.0038839832 -0.89177942 0.002785885
0.13365564 0.023942245 0.65300006 0.45536751 0.0042820792 -0.8902933 0.0028308616
0.13584255 0.024013821 0.65500003 0.4646365 0.0022910966 -0.88549852 0.0032008013
0.13761979 0.024012063 0.65500003 0.46812275 0.0020419774 -0.88366103 0.003156252
0.13982238 0.024083607 0.65700001 0.47545749 -0.001835683 -0.87973678 0.0028330167
0.14182001 0.024118485 0.65800005 0.481902 -0.0045043086 -0.87621355 0.0028604008
0.144041 0.024190003 0.66000003 0.49366817 -0.0091284281 -0.86960238 0.0032389173
0.14605157 0.024224857 0.66100001 0.50251561 -0.012751531 -0.86447406 0.0034789066
0.14806733 0.024259701 0.66200006 0.51257515 -0.0184978 -0.85844308 0.0036132464
0.14986178 0.024257895 0.66200006 0.51635963 -0.021425771 -0.85610378 0.0032197314
0.15211415 0.024329364 0.66400003 0.53775173 -0.028259562 -0.84262955 0.0043740049
0.15414527 0.024364186 0.66500002 0.54815328 -0.03212364 -0.83576071 0.0045313481
0.15641604 0.024435634 0.66700006 0.58100337 -0.040509794 -0.81289244 0.0057957061
0.15846017 0.024470439 0.66800004 0.59593683 -0.045692354 -0.80173039 0.0058855065
0.16098927 0.024578495 0.671 0.61580449 -0.056459375 -0.78587347 0.0061013983
0.16329174 0.024649914 0.67300004 0.63112658 -0.064685889 -0.77297801 0.0063559776
0.16511409 0.02464807 0.67300004 0.6387648 -0.070337012 -0.76618022 0.0061958428
0.16768031 0.024756096 0.67600006 0.65523559 -0.083160408 -0.75083339 0.0052440148
0.17001176 0.02482749 0.67800003 0.66979468 -0.08969333 -0.73710936 0.005132799
0.1731142 0.025008719 0.68300003 0.69592929 -0.1005066 -0.71104211 0.0035777448
0.17573108 0.025116703 0.68600005 0.71375352 -0.10747191 -0.69210243 0.0036468809
-0.13171223 0.018613135 0.54900002 -0.31990117 -0.91645545 -0.24035944 0.10884223
-0.1344949 0.019224841 0.56700003 0.8146317 0.56164479 0.14467277 0.083084278
-0.13310312 0.019942841 0.588 0.89754921 0.43888494 -0.042254794 0.070178695
-0.12703614 0.019265952 0.56800002 0.801597 0.58252084 0.13457943 0.083327204
-0.12527527 0.019233465 0.56700003 0.79420984 0.59006 0.14511992 0.085989654
-0.12199195 0.018963503 0.55900002 0.070766702 -0.98767638 -0.1395977 0.091148406
-0.13130252 0.020934192 0.61700004 0.92298293 0.36223799 -0.12994654 0.083131924
-0.12836809 0.020732148 0.611 0.93791872 0.33589089 -0.086520068 0.07584019
-0.13002834 0.021276612 0.62700003 0.9308145 0.33633849 -0.14304115 0.093611032
-0.13078277 0.021685407 0.63900006 0.83992416 0.44488204 -0.3108173 0.062607817
-0.12884638 0.021653047 0.63800001 0.84580332 0.43103769 -0.31436163 0.058133967
-0.12372731 0.021077612 0.62100005 0.95769018 0.28315765 -0.051490147 0.077834733
-0.13314602 0.023321098 0.68700004 -0.81537288 -0.093400955 -0.57135218 0.019437071
-0.13166219 0.023390658 0.68900001 -0.8085463 -0.08286874 -0.58256817 0.014069808
-0.12884857 0.02322256 0.68400002 -0.78011107 -0.087242447 -0.61952835 0.016185787
-0.12606177 0.023054427 0.67900002 -0.74077982 -0.080518186 -0.66690481 0.018853849
-0.12330184 0.022886261 0.67400002 -0.70034319 -0.076410592 -0.7097047 0.028225152
-0.120749 0.022752017 0.67000002 -0.67349184 -0.068563655 -0.73600805 0.035009954
-0.11875007 0.022719625 0.66900003 -0.65833646 -0.065096281 -0.74990368 0.03302636
-0.11640672 0.022619288 0.66600001 -0.62804019 -0.059482377 -0.77590418 0.036809023
-0.11425142 0.022552891 0.66400003 -0.5903756 -0.04840352 -0.80567592 0.055185832
-0.11193734 0.022452505 0.66100001 -0.5350666 -0.036867205 -0.84400505 0.053110376
-0.1098059 0.022386059 0.65900004 -0.49021649 -0.018918883 -0.87139535 0.045719698
-0.10784896 0.022353565 0.65800005 -0.46229753 -0.0097329095 -0.88667148 0.04207664
-0.10605832 0.022355024 0.65800005 -0.46702284 -0.0042668656 -0.88423496 0.028053889
-0.10442585 0.022390444 0.65900004 -0.47393662 -0.00059860188 -0.88055879 0.01565895
-0.10232038 0.022323916 0.65700001 -0.45031214 0.0089479769 -0.89282638 0.012519048
-0.10022553 0.022257365 0.65500003 -0.42966387 0.020011706 -0.90276712 0.0074594179
-0.098291554 0.022224771 0.65400004 -0.4133268 0.024354553 -0.91025698 0.0072005671
-0.096510321 0.022226144 0.65400004 -0.40479246 0.02675017 -0.91401726 0.0066140182
-0.094583929 0.02219351 0.65300006 -0.38894802 0.029957419 -0.92077249 0.00505669
-0.092378452 0.022092877 0.65000004 -0.37678874 0.034500275 -0.9256565 0.0038527821
-0.090467826 0.022060195 0.64900005 -0.36693048 0.039060444 -0.92942798 0.0030067635
-0.088562369 0.022027489 0.648 -0.36017674 0.043836195 -0.93185359 0.0034401219
-0.087197863 0.022130745 0.65100002 -0.36045313 0.043891963 -0.93174404 0.0035480948
-0.085291848 0.022098005 0.65000004 -0.35736427 0.047697701 -0.93274635 0.0037674061
-0.083391011 0.022065239 0.64900005 -0.3536751 0.051358085 -0.93395728 0.0024252532
-0.08149536 0.022032451 0.648 -0.34967458 0.055336684 -0.93523562 0.0026559839
-0.079727918 0.022033637 0.648 -0.34542927 0.057340831 -0.93669134 0.0021174552
-0.078200847 0.022102818 0.65000004 -0.34129187 0.05931931 -0.93808371 0.0016547826
-0.07642743 0.022103971 0.65000004 -0.33721584 0.059592877 -0.93953931 0.0023155264
-0.074538916 0.022071095 0.64900005 -0.33181769 0.059786487 -0.94144708 0.0030072967
-0.072543472 0.022004182 0.64700001 -0.32197714 0.059531238 -0.94487393 0.0039394577
-0.070558704 0.021937242 0.64500004 -0.31455269 0.059471179 -0.94737518 0.0035434263
-0.068584606 0.021870272 0.64300001 -0.30926049 0.06031774 -0.94906253 0.0052286405
-0.066829063 0.021871304 0.64300001 -0.30826315 0.061802503 -0.94929147 0.0058259428
-0.06517449 0.021906331 0.64400005 -0.30776918 0.062745616 -0.94938982 0.0051866644
-0.063218802 0.021839282 0.64200002 -0.30533054 0.063980699 -0.95009458 0.0055974452
-0.061369557 0.021806221 0.64100003 -0.30256546 0.067318752 -0.95074826 0.005467427
-0.059432555 0.021739118 0.63900006 -0.29829669 0.067441784 -0.95208758 0.0054442063
-0.057777084 0.021774042 0.64000005 -0.29539374 0.068053439 -0.95294875 0.0070248106
-0.056028407 0.021774931 0.64000005 -0.29053277 0.068648763 -0.95439929 0.0069173649
-0.054194715 0.021741768 0.63900006 -0.28505641 0.069654495 -0.95597655 0.0078743352
-0.052448362 0.021742603 0.63900006 -0.28183702 0.069634102 -0.95693207 0.0077848719
-0.050622474 0.021709384 0.63800001 -0.27343211 0.068282858 -0.95946461 0.0070520677
-0.048801865 0.021676138 0.63700002 -0.26341134 0.066815197 -0.96236694 0.0062537105
-0.047060423 0.021676896 0.63700002 -0.25075132 0.067257814 -0.96571219 0.0063271471
-0.04538995 0.021711657 0.63800001 -0.23777747 0.068245396 -0.96891922 0.0062815235
-0.043645434 0.021712365 0.63800001 -0.21921098 0.06859073 -0.9732635 0.0067838663
-0.041703727 0.021610949 0.63500005 -0.19178711 0.066926092 -0.97915196 0.0081430255
-0.039904144 0.021577565 0.634 -0.17190178 0.064884022 -0.98297501 0.0097710425
-0.038109884 0.021544157 0.63300002 -0.15139182 0.065120377 -0.98632646 0.012759149
-0.036378421 0.021544751 0.63300002 -0.13320324 0.065390825 -0.98892921 0.014168114
-0.034537353 0.02147725 0.63100004 -0.10562231 0.065711938 -0.99223274 0.014083199
-0.032811087 0.021477791 0.63100004 -0.084869877 0.066973478 -0.99413866 0.015039592
-0.031084701 0.021478308 0.63100004 -0.064320557 0.068613693 -0.99556768 0.015828336
-0.029451244 0.021546874 0.63300002 -0.042736553 0.06971541 -0.99665111 0.01636159
-0.027762938 0.021581376 0.634 -0.015797928 0.069305778 -0.99747038 0.016889958
-0.025945891 0.02151373 0.63200003 0.010513636 0.070837103 -0.99743247 0.016419504
-0.024178009 0.021480097 0.63100004 0.03350544 0.070807122 -0.99692714 0.015438191
-0.022415504 0.021446435 0.63000005 0.057900794 0.07115487 -0.99578339 0.015225969
-0.020724071 0.021480827 0.63100004 0.087920114 0.070294559 -0.99364418 0.014062396
-0.019027086 0.021515196 0.63200003 0.11578699 0.070174888 -0.99079204 0.015110374
-0.017269809 0.021481447 0.63100004 0.14449248 0.070545614 -0.98698795 0.014535856
-0.015616469 0.021583846 0.634 0.17365515 0.069132552 -0.98237699 0.014201951
-0.013880962 0.021584088 0.634 0.20232044 0.06783051 -0.97696751 0.012708221
-0.012164555 0.021618344 0.63500005 0.22863689 0.066899769 -0.97121036 0.011984068
-0.010442625 0.021652574 0.63600004 0.25722754 0.065373152 -0.96413708 0.011390795
-0.0087014986 0.021652732 0.63600004 0.27849671 0.065467991 -0.95820326 0.010253998
-0.0069712806 0.021686906 0.63700002 0.29904208 0.064681083 -0.95204526 0.0077955611
-0.005227353 0.021687005 0.63700002 0.31764811 0.064487971 -0.94601321 0.0067841131
-0.003483406 0.021687075 0.63700002 0.33247748 0.062847644 -0.94101489 0.0053192237
-0.001744906 0.021755213 0.63900006 0.34878859 0.06050352 -0.93524641 0.0049513606
4.545152e-06 0.021789271 0.64000005 0.35596153 0.05726812 -0.9327442 0.005070243
0.0017622163 0.021857347 0.64200002 0.35714775 0.052337769 -0.93258047 0.0054199044
0.0035198666 0.021857304 0.64200002 0.35433811 0.050129749 -0.93377268 0.0055596647
0.0052857236 0.021891277 0.64300001 0.35167417 0.045934614 -0.93499476 0.0056019165
0.0070351176 0.021857129 0.64200002 0.34835604 0.045324899 -0.93626583 0.0062388303
0.0088064019 0.021891048 0.64300001 0.34265387 0.044032909 -0.93842924 0.0071509425
0.01055026 0.021856843 0.64200002 0.33498225 0.046214022 -0.9410904 0.0086708581
0.012365283 0.021958791 0.64500004 0.31904164 0.046039622 -0.94662178 0.0097002657
0.01408714 0.021890484 0.64300001 0.30580616 0.04661005 -0.95095223 0.01138683
0.015896577 0.021958327 0.64500004 0.28348002 0.047204271 -0.95781571 0.013667402
0.017662136 0.021958055 0.64500004 0.25700369 0.049276587 -0.96515328 0.015303781
0.019487862 0.022025838 0.64700001 0.22392543 0.052649707 -0.97318316 0.017045572
0.021291606 0.022059547 0.648 0.18402098 0.057004713 -0.98126793 0.018698495
0.023136334 0.022127271 0.65000004 0.14036226 0.059993204 -0.98828095 0.020171493
0.02499192 0.022194963 0.65200001 0.09479849 0.066102177 -0.99329942 0.022223109
0.026776219 0.022194542 0.65200001 0.056164805 0.067253336 -0.99615389 0.022067433
0.028516611 0.022160055 0.65100002 0.017074944 0.070306137 -0.99737936 0.023354042
0.030204883 0.022091502 0.64900005 -0.013714138 0.071764022 -0.99732739 0.022851918
0.031980641 0.022090999 0.64900005 -0.049191806 0.072165556 -0.99617887 0.022710631
0.033808287 0.022124505 0.65000004 -0.084929213 0.073280148 -0.99368858 0.021350456
0.035531785 0.022089912 0.64900005 -0.11947488 0.075647138 -0.98995113 0.019582234
0.037364636 0.022123359 0.65000004 -0.15407971 0.078549571 -0.98493117 0.018373035
0.039082382 0.022088714 0.64900005 -0.18298532 0.081416935 -0.97973853 0.015676972
0.040857464 0.022088075 0.64900005 -0.20977598 0.082572617 -0.97425652 0.011765592
0.042435322 0.021985309 0.64600003 -0.23983501 0.082736477 -0.9672817 0.010622032
0.044133455 0.021950586 0.64500004 -0.26175791 0.0815906 -0.96167862 0.0090030245
0.045897115 0.021949871 0.64500004 -0.27450132 0.080185562 -0.95823765 0.0069877184
0.047734495 0.02198316 0.64600003 -0.28580099 0.079928219 -0.95494992 0.0067207855
0.049347289 0.021914335 0.64400005 -0.29645115 0.080200672 -0.95167464 0.0054101334
0.050948959 0.021845488 0.64200002 -0.30574965 0.079324923 -0.9488017 0.0049919826
0.052621607 0.021810649 0.64100003 -0.30691519 0.079421133 -0.94841725 0.0059025669
0.054373421 0.021809811 0.64100003 -0.30220371 0.076741509 -0.9501493 0.0073408871
0.056125034 0.021808948 0.64100003 -0.29554942 0.074891552 -0.95238739 0.0067218728
0.057876449 0.021808062 0.64100003 -0.28474203 0.072417513 -0.95586491 0.007805075
0.059627648 0.021807151 0.64100003 -0.26748982 0.069584876 -0.96104479 0.0077259098
0.061187129 0.021738179 0.63900006 -0.24450032 0.067977771 -0.96726352 0.007701688
0.06283395 0.021703206 0.63800001 -0.22408935 0.066010348 -0.97233045 0.0084964205
0.064576305 0.021702228 0.63800001 -0.20120026 0.062101636 -0.97757959 0.0095140897
0.06631843 0.021701228 0.63800001 -0.17865968 0.056639619 -0.9822793 0.010778613
0.068060324 0.021700203 0.63800001 -0.15882961 0.052614804 -0.98590302 0.011477401
0.069583163 0.021631137 0.63600004 -0.1370284 0.047082696 -0.98944759 0.01058203
0.071319126 0.021630073 0.63600004 -0.11463635 0.041173287 -0.99255389 0.0098511521
0.073169708 0.021662995 0.63700002 -0.085817091 0.033482812 -0.9957481 0.0094797313
0.074907899 0.021661887 0.63700002 -0.059475433 0.026408002 -0.9978804 0.010644093
0.076525524 0.021626754 0.63600004 -0.034436308 0.019285057 -0.99922079 0.0098729953
0.078014374 0.021557597 0.634 -0.011973605 0.014225142 -0.99982709 0.010708463
0.079743616 0.021556433 0.634 0.012320762 0.0059627276 -0.99990636 0.010212653
0.081729628 0.021623248 0.63600004 0.033788122 -0.00037925408 -0.99942899 0.0086725289
0.083595023 0.021656036 0.63700002 0.056119919 -0.0040189824 -0.99841595 0.0099073667
0.085331656 0.021654811 0.63700002 0.083085768 -0.0058830334 -0.99652499 0.0091294898
0.086931325 0.02161957 0.63600004 0.10436024 -0.0062812231 -0.99451971 0.0079085762
0.088804081 0.021652294 0.63700002 0.1275059 -0.0078188917 -0.99180704 0.0075989049
0.090682015 0.021685001 0.63800001 0.14854379 -0.0096990531 -0.98885834 0.0079858275
0.09242025 0.021683697 0.63800001 0.16493729 -0.013531604 -0.98621124 0.0070654778
0.094010629 0.021648392 0.63700002 0.18187106 -0.01519126 -0.98320502 0.0075170994
0.095895886 0.021681041 0.63800001 0.20324858 -0.017794613 -0.97896546 0.0068970975
0.097786307 0.021713668 0.63900006 0.22295818 -0.019273426 -0.97463745 0.0060012313
0.099681869 0.021746274 0.64000005 0.24210106 -0.020054137 -0.97004372 0.0060556242
0.10174107 0.021812836 0.64200002 0.26128298 -0.018474009 -0.96508545 0.0059621506
0.10348845 0.021811428 0.64200002 0.27588102 -0.01932768 -0.96099746 0.0052506323
0.10523555 0.021810003 0.64200002 0.29156694 -0.017269375 -0.95639449 0.0057580378
0.10698234 0.021808567 0.64200002 0.30340904 -0.015500003 -0.95273435 0.0050774072
0.1088982 0.021841081 0.64300001 0.31567806 -0.01548081 -0.94874001 0.004486965
0.11064711 0.021839615 0.64300001 0.32507741 -0.014723148 -0.94557285 0.0038875043
0.11257053 0.021872098 0.64400005 0.33790141 -0.011916228 -0.94110614 0.0031460933
0.11449908 0.021904562 0.64500004 0.35387206 -0.0084287236 -0.93525589 0.0029195794
0.1160723 0.021869097 0.64400005 0.36105976 -0.007360768 -0.93251359 0.0028538487
0.11800566 0.021901535 0.64500004 0.37472281 -0.0055432701 -0.92712027 0.0028506238
0.11975849 0.021900002 0.64500004 0.38510364 -0.0040812627 -0.92286432 0.0034448237
0.1218878 0.021966361 0.64700001 0.3982347 -0.0026482008 -0.91727972 0.0041493895
0.12383657 0.021998754 0.648 0.40990379 0.00040618455 -0.91212863 0.0035916434
0.12579046 0.022031132 0.64900005 0.41910091 0.0034952613 -0.90793294 0.0034476586
0.12794602 0.022097439 0.65100002 0.42998573 0.0068374164 -0.9028098 0.0024016784
0.13011214 0.02216373 0.65300006 0.44310147 0.0077401861 -0.89643806 0.0023166137
0.13208686 0.022196062 0.65400004 0.45251894 0.008150598 -0.89171749 0.0026206141
0.13386199 0.022194445 0.65400004 0.45959881 0.0084793847 -0.8880862 0.0032795041
0.13584425 0.022226756 0.65500003 0.46574816 0.0077924165 -0.88488299 0.0034278773
0.13783161 0.022259055 0.65600002 0.47018215 0.0062192772 -0.8825475 0.002656321
0.13982409 0.022291344 0.65700001 0.4769409 0.0039471169 -0.87892646 0.0026902556
0.14203726 0.022357551 0.65900004 0.48689008 -0.0017991173 -0.87346137 0.0027417224
0.14404273 0.022389818 0.66000003 0.49698445 -0.0071402569 -0.86773008 0.0030716218
0.14605331 0.022422073 0.66100001 0.50568104 -0.011981432 -0.86263734 0.0035998647
0.14806905 0.022454325 0.66200006 0.51726025 -0.017403502 -0.8556512 0.0037518525
0.14986351 0.022452649 0.66200006 0.52080518 -0.021222895 -0.85341167 0.0032354139
0.1521159 0.022518799 0.66400003 0.53823352 -0.02836022 -0.84231842 0.0041853152
0.15414701 0.022551022 0.66500002 0.55360997 -0.033569656 -0.8320992 0.0044340491
0.15641782 0.022617154 0.66700006 0.58749759 -0.040144298 -0.80822951 0.0055188253
0.15846193 0.022649365 0.66800004 0.60294968 -0.046910793 -0.79639876 0.0057991706
0.1607511 0.022715472 0.67000002 0.61808467 -0.054356653 -0.78422993 0.0057208482
0.16280822 0.022747673 0.671 0.62700778 -0.059065286 -0.77677059 0.0059191389
0.16487052 0.022779871 0.67200005 0.63889813 -0.066784672 -0.76638699 0.0055341288
0.16793014 0.022947649 0.67700005 0.66358662 -0.083310433 -0.74344617 0.0045393384
0.17051505 0.023047613 0.68000001 0.68053603 -0.094082192 -0.72664928 0.0045173895
0.17362291 0.023215352 0.68500006 0.70674574 -0.10242497 -0.700014 0.0033530511
0.17598905 0.023281401 0.68700004 0.72459906 -0.11078168 -0.6802085 0.003347629
-0.13123374 0.01705418 0.54700005 -0.21014467 -0.96027482 -0.18360728 0.11319633
-0.13929172 0.018522309 0.59400004 0.89742619 0.43000558 -0.098597676 0.067165844
-0.12759677 0.017371166 0.55700004 -0.53114039 -0.81743318 -0.2229192 0.10570939
-0.12223889 0.016842248 0.54000002 -0.10188785 -0.97482061 -0.19835225 0.12057722
-0.12614287 0.017592106 0.56400001 0.8007431 0.57699698 0.16088809 0.097870097
-0.12527665 0.017687002 0.56700003 0.78871089 0.59732717 0.14537987 0.087807499
-0.12657623 0.018093871 0.58000004 0.87251693 0.4834694 0.070509277 0.069956169
-0.12406846 0.018190157 0.583 0.89661127 0.44182909 0.029584374 0.068496443
-0.12878977 0.019127598 0.61300004 0.93135834 0.34489593 -0.11669829 0.072601892
-0.12774861 0.019222621 0.61600006 0.93044996 0.34574607 -0.12133674 0.070512034
-0.12771423 0.019473691 0.62400001 0.93402559 0.33825904 -0.1147909 0.081452735
-0.1242029 0.019194219 0.61500001 0.93641949 0.32973078 -0.11998413 0.069733284
-0.12273256 0.019226825 0.61600006 0.94601482 0.3112675 -0.090380274 0.068217911
-0.13256618 0.02135234 0.68400002 -0.80488002 -0.096846208 -0.58548188 0.017519649
-0.13109051 0.021416305 0.68600005 -0.80725312 -0.096828304 -0.58220851 0.016628973
-0.12866177 0.02132416 0.68300003 -0.77905786 -0.092077263 -0.62015378 0.015528826
-0.12606333 0.021200769 0.67900002 -0.7425065 -0.087114491 -0.66414994 0.018851543
-0.12348631 0.02107735 0.67500001 -0.71107328 -0.080468379 -0.69849807 0.025075329
-0.12093072 0.020953905 0.671 -0.68415999 -0.082219675 -0.72468269 0.035110224
-0.11857407 0.020861661 0.66800004 -0.65530556 -0.071620069 -0.75196093 0.031938605
-0.11640819 0.020800624 0.66600001 -0.63069749 -0.067772694 -0.77306372 0.036850043
-0.11408081 0.020708332 0.66300005 -0.58443731 -0.057691555 -0.80938536 0.05396875
-0.11193878 0.020647252 0.66100001 -0.54278433 -0.043989271 -0.83871937 0.051651273
-0.11014059 0.020648628 0.66100001 -0.5285114 -0.034473017 -0.84822601 0.037231129
-0.10817818 0.020618752 0.66000003 -0.50175679 -0.020049553 -0.86477637 0.030645758
-0.1062209 0.020588858 0.65900004 -0.48464912 -0.010977163 -0.87463975 0.02118928
-0.10411029 0.020527698 0.65700001 -0.46580926 -0.0015067726 -0.88488382 0.014760594
-0.10216601 0.020497767 0.65600002 -0.45416781 0.0072861193 -0.89088637 0.011826419
-0.10022687 0.020467814 0.65500003 -0.4345338 0.01436724 -0.90054095 0.0076239235
-0.098292887 0.020437844 0.65400004 -0.41663125 0.020578027 -0.90884256 0.0076806149
-0.096364051 0.020407856 0.65300006 -0.40415537 0.02471355 -0.91435647 0.0064007598
-0.09458521 0.020409098 0.65300006 -0.3918941 0.027805772 -0.91959 0.0054453355
-0.092663951 0.020379068 0.65200001 -0.38157097 0.032768197 -0.92375851 0.0041345125
-0.090747863 0.02034902 0.65100002 -0.3748073 0.036244683 -0.92639399 0.0033346664
-0.088836946 0.020318955 0.65000004 -0.36774433 0.040745582 -0.92903388 0.0038651999
-0.08719907 0.020351386 0.65100002 -0.36393836 0.043656614 -0.9303993 0.0038856161
-0.085424267 0.020352542 0.65100002 -0.36160576 0.047117423 -0.93113977 0.0037836423
-0.083392181 0.02029115 0.64900005 -0.3567068 0.053807341 -0.93266553 0.0036341718
-0.081496499 0.020260999 0.648 -0.35270432 0.057688694 -0.93395483 0.0031962094
-0.079606019 0.020230826 0.64700001 -0.34569231 0.058865614 -0.93649971 0.0029997341
-0.078081653 0.020294443 0.64900005 -0.34110117 0.059978019 -0.93811125 0.002506631
-0.07619337 0.020264231 0.648 -0.33479384 0.061373372 -0.94029063 0.0030165624
-0.074425131 0.020265266 0.648 -0.33129254 0.061906174 -0.94149506 0.004048164
-0.072432399 0.020203736 0.64600003 -0.32010159 0.062272124 -0.94533443 0.0045584943
-0.070559725 0.020173453 0.64500004 -0.31382558 0.061279774 -0.94750106 0.0041422877
-0.068585604 0.020111868 0.64300001 -0.31024733 0.063726053 -0.94851756 0.0048636138
-0.066830039 0.02011282 0.64300001 -0.309789 0.066039234 -0.9485091 0.0052711838
-0.065074235 0.020113748 0.64300001 -0.30754352 0.066666022 -0.9491958 0.0047499971
-0.063219734 0.020083372 0.64200002 -0.30676264 0.068257585 -0.94933534 0.0052440721
-0.061370466 0.020052971 0.64100003 -0.30324 0.06910488 -0.95040518 0.004592305
-0.05952644 0.020022547 0.64000005 -0.29975909 0.069609575 -0.95147204 0.0054878849
-0.057868231 0.020054672 0.64100003 -0.29605639 0.06922622 -0.95265853 0.0066916146
-0.056116786 0.020055486 0.64100003 -0.29165864 0.069710456 -0.9539789 0.0072538494
-0.054280337 0.020024994 0.64000005 -0.28556392 0.069815837 -0.95581323 0.0077047492
-0.052367065 0.019963181 0.63800001 -0.28034991 0.068816505 -0.95742792 0.0074046627
-0.050623238 0.019963928 0.63800001 -0.27295998 0.06758181 -0.95964867 0.0077655469
-0.048802607 0.019933356 0.63700002 -0.26174504 0.066404849 -0.96284992 0.0066172299
-0.047135025 0.019965347 0.63800001 -0.25311932 0.065977961 -0.9651826 0.0062474734
-0.045461792 0.019997317 0.63900006 -0.23977488 0.065981448 -0.96858376 0.0063532162
-0.043714516 0.019997969 0.63900006 -0.22139317 0.066913918 -0.9728862 0.0076188683
-0.041901387 0.019967297 0.63800001 -0.19732112 0.065915897 -0.97812045 0.0080360938
-0.039904755 0.01984271 0.634 -0.17155626 0.063681699 -0.983114 0.0096893432
-0.038110472 0.019811988 0.63300002 -0.15451548 0.063443884 -0.98595124 0.012196402
-0.036321513 0.019781239 0.63200003 -0.13157561 0.06336493 -0.98927885 0.013054209
-0.034592617 0.019781761 0.63200003 -0.10900012 0.063229285 -0.99202877 0.013520425
-0.032863591 0.019782264 0.63200003 -0.086759225 0.063661382 -0.99419314 0.014223751
-0.031134445 0.019782739 0.63200003 -0.066078521 0.065104671 -0.9956882 0.01533
-0.029451702 0.019814491 0.63300002 -0.043405268 0.066289507 -0.99685591 0.016936101
-0.027763369 0.019846218 0.634 -0.016177578 0.066396169 -0.99766219 0.017032377
-0.025905242 0.019752711 0.63100004 0.0081390319 0.06817054 -0.99764043 0.016027192
-0.024178386 0.019753085 0.63100004 0.03220658 0.067790203 -0.99717963 0.016526246
-0.022415854 0.019722128 0.63000005 0.057568528 0.066630147 -0.99611562 0.015832553
-0.020757239 0.019785061 0.63200003 0.090023324 0.066863321 -0.9936927 0.015628051
-0.019057488 0.019816667 0.63300002 0.11799346 0.066806965 -0.99076456 0.015471014
-0.01732482 0.019816941 0.63300002 0.14622527 0.06613519 -0.9870382 0.015493029
-0.015616715 0.019848494 0.634 0.17553154 0.0646808 -0.98234671 0.01498124
-0.013903073 0.019880023 0.63500005 0.20311622 0.064519256 -0.97702664 0.013946241
-0.012164745 0.019880218 0.63500005 0.22832365 0.063498728 -0.97151232 0.01240772
-0.01044279 0.019911697 0.63600004 0.25772345 0.062907621 -0.96416867 0.011870874
-0.0087016355 0.019911841 0.63600004 0.27904975 0.062006909 -0.95827258 0.010824075
-0.0069604465 0.01991196 0.63600004 0.29787228 0.061557151 -0.95261896 0.0083192233
-0.0052274354 0.01994336 0.63700002 0.31697825 0.060929548 -0.9464736 0.0068068421
-0.003488929 0.019974735 0.63800001 0.33613914 0.060306072 -0.9398796 0.0055691493
-0.0017476642 0.020037392 0.64000005 0.3512693 0.058767591 -0.93442827 0.004797338
4.5452234e-06 0.020037405 0.64000005 0.35920426 0.055865269 -0.93158537 0.005352472
0.0017594994 0.020068701 0.64100003 0.35999793 0.051853329 -0.93151093 0.0050794776
0.0035144396 0.02006866 0.64100003 0.35755169 0.048650082 -0.93262523 0.0060669729
0.0052693654 0.020068593 0.64100003 0.35552773 0.045779705 -0.93354392 0.0053071114
0.0070242714 0.0200685 0.64100003 0.35015994 0.04417076 -0.9356479 0.0060558887
0.0087928446 0.020099688 0.64200002 0.34353104 0.043583427 -0.93812948 0.0076372321
0.010566859 0.02013085 0.64300001 0.33327049 0.042364191 -0.94187897 0.0082276324
0.012384648 0.020224599 0.64600003 0.31868711 0.043407328 -0.94686556 0.010036579
0.014153088 0.0202244 0.64600003 0.30042255 0.042927276 -0.95283973 0.01217143
0.015970765 0.020286787 0.648 0.27765998 0.045758605 -0.959589 0.014347693
0.017771946 0.020317841 0.64900005 0.24763706 0.049765963 -0.96757394 0.016247267
0.019578533 0.020348869 0.65000004 0.2117077 0.053320628 -0.97587746 0.017200219
0.021390514 0.020379864 0.65100002 0.17050865 0.056775201 -0.98371917 0.018283041
0.023101101 0.020316919 0.64900005 0.14097677 0.062141903 -0.98806071 0.021000229
0.024915647 0.020347867 0.65000004 0.096994795 0.065203808 -0.99314678 0.02210621
0.026694501 0.020347482 0.65000004 0.056413416 0.067331858 -0.99613446 0.023641322
0.028517053 0.02037837 0.65100002 0.017230527 0.06980186 -0.99741209 0.023078041
0.03025189 0.020346632 0.65000004 -0.014441293 0.072029777 -0.99729794 0.022368558
0.032030411 0.020346168 0.65000004 -0.050716691 0.073623307 -0.99599564 0.022408908
0.033808809 0.02034568 0.65000004 -0.086338885 0.075726911 -0.99338365 0.020520782
0.03558708 0.020345164 0.65000004 -0.12147888 0.078377143 -0.9894948 0.019352796
0.037365217 0.020344626 0.65000004 -0.15478903 0.080713168 -0.98464501 0.017211342
0.039143201 0.020344062 0.65000004 -0.18360662 0.082448818 -0.979536 0.014600975
0.040921044 0.020343469 0.65000004 -0.21125701 0.082966775 -0.97390294 0.012714961
0.042501654 0.020248966 0.64700001 -0.23781095 0.083661042 -0.96770179 0.0097816447
0.044134129 0.020185739 0.64500004 -0.2589972 0.081459641 -0.96243691 0.0084845712
0.045826659 0.020153789 0.64400005 -0.27447978 0.081201583 -0.9581582 0.007090752
0.047735218 0.02021569 0.64600003 -0.28650662 0.081352606 -0.95461804 0.0071065943
0.049424659 0.020183692 0.64500004 -0.29699063 0.081725352 -0.95137668 0.0065606926
0.051108453 0.020151673 0.64400005 -0.30525219 0.081483915 -0.94877893 0.0074956506
0.052704498 0.020088339 0.64200002 -0.30628961 0.076842748 -0.94883186 0.0073240739
0.054374237 0.020056279 0.64100003 -0.299799 0.073819771 -0.95114207 0.0076775914
0.056125876 0.020055484 0.64100003 -0.29267001 0.072048187 -0.95349532 0.0081348
0.057787016 0.020023381 0.64000005 -0.28124541 0.068345599 -0.95719898 0.0086627323
0.059535511 0.020022543 0.64000005 -0.26411772 0.065213658 -0.96228319 0.0076993247
0.06128379 0.020021683 0.64000005 -0.2438419 0.063626021 -0.96772563 0.0088396203
0.063031852 0.020020803 0.64000005 -0.22316048 0.061682802 -0.97282815 0.010219668
0.064678475 0.019988619 0.63900006 -0.19739693 0.057991408 -0.97860688 0.0092024319
0.066319406 0.019956417 0.63800001 -0.17532006 0.054366544 -0.98300928 0.011579084
0.067954637 0.019924195 0.63700002 -0.15385775 0.049975265 -0.98682839 0.010849996
0.069693588 0.019923234 0.63700002 -0.12993191 0.044697385 -0.99051493 0.011065026
0.071208023 0.019859705 0.63500005 -0.10920074 0.036814097 -0.99333775 0.009191866
0.073055893 0.019889981 0.63600004 -0.082765035 0.030169791 -0.99611235 0.0099814106
0.074673787 0.01985769 0.63500005 -0.058465812 0.023885818 -0.9980036 0.010113658
0.076526612 0.019887922 0.63600004 -0.028025657 0.017672893 -0.99945098 0.010937572
0.078138545 0.019855598 0.63500005 -0.0016916757 0.011391515 -0.99993372 0.010580294
0.07999631 0.019885791 0.63600004 0.018456655 0.0051604612 -0.9998163 0.009750179
0.081859276 0.019915961 0.63700002 0.03763821 -0.0022999153 -0.9992888 0.0095069017
0.083727419 0.01994611 0.63800001 0.0604757 -0.0070803356 -0.99814457 0.0086185029
0.085332841 0.019913716 0.63700002 0.084133767 -0.0095143197 -0.99640906 0.0090131192
0.087205894 0.019943828 0.63800001 0.11003681 -0.010298776 -0.99387419 0.008986271
0.088944718 0.019942658 0.63800001 0.13070476 -0.011951549 -0.99134934 0.0084827468
0.090683252 0.019941473 0.63800001 0.15181279 -0.014715177 -0.98829973 0.0079946704
0.092421517 0.019940276 0.63800001 0.17014128 -0.017744547 -0.98525995 0.0073435064
0.094159491 0.019939059 0.63800001 0.18860362 -0.020611208 -0.98183697 0.0071696732
0.095897168 0.019937828 0.63800001 0.20468287 -0.02285271 -0.97856152 0.0062290253
0.097787619 0.019967834 0.63900006 0.22293903 -0.023466835 -0.97454989 0.0057872105
0.09983895 0.020029061 0.64100003 0.24286613 -0.022216054 -0.96980542 0.0062205638
0.10190088 0.020090267 0.64300001 0.26393953 -0.02190474 -0.96429056 0.0051829512
0.10365101 0.020088969 0.64300001 0.27794039 -0.02110775 -0.96036637 0.0055111232
0.10556477 0.020118898 0.64400005 0.29633555 -0.01977491 -0.95487916 0.0052364334
0.10715038 0.020086329 0.64300001 0.30529729 -0.0175386 -0.95209557 0.0053510107
0.1088996 0.02008499 0.64300001 0.31497142 -0.017114874 -0.94894683 0.0043862867
0.11064852 0.020083638 0.64300001 0.32401934 -0.016191512 -0.94591194 0.0033940803
0.11292157 0.020175973 0.64600003 0.3443881 -0.013640203 -0.93872821 0.002972607
0.11485555 0.020205822 0.64700001 0.35822874 -0.0094104586 -0.93358642 0.0035742749
0.11643422 0.020173201 0.64600003 0.36715275 -0.0088470364 -0.93011862 0.0036320887
0.11819008 0.020171799 0.64600003 0.37822419 -0.0075695082 -0.92568308 0.0038912063
0.11994565 0.020170385 0.64600003 0.38734746 -0.005773366 -0.92191571 0.0039239391
0.12188929 0.020200184 0.64700001 0.39739329 -0.0035161744 -0.91764158 0.0047810622
0.12383807 0.020229969 0.648 0.40877575 -0.0013231504 -0.91263396 0.0042956159
0.1259858 0.02029096 0.65000004 0.41997468 0.0042219306 -0.90752602 0.0040088296
0.12814409 0.020351931 0.65200001 0.43139589 0.0081621092 -0.90212578 0.0031785478
0.13011369 0.020381674 0.65300006 0.44033805 0.0093885483 -0.89778298 0.0025364303
0.13188642 0.020380195 0.65300006 0.44876465 0.0097346399 -0.89359701 0.0025402578
0.13365887 0.020378711 0.65300006 0.45559612 0.009821537 -0.89013243 0.0027846787
0.1358458 0.020439627 0.65500003 0.46571261 0.0094190016 -0.88488585 0.003009924
0.13783318 0.02046933 0.65600002 0.47142914 0.007775059 -0.88186961 0.0027548175
0.13982567 0.020499017 0.65700001 0.47899714 0.0052547851 -0.8778007 0.0028617589
0.14182331 0.0205287 0.65800005 0.48802352 0.00042131892 -0.87283039 0.0025576011
0.14360783 0.020527177 0.65800005 0.49388009 -0.0018780014 -0.86952806 0.0028120179
0.145613 0.020556843 0.65900004 0.50338423 -0.0082227848 -0.86402351 0.0031086206
0.1476233 0.0205865 0.66000003 0.51394838 -0.013764327 -0.85771066 0.0035627789
0.14963874 0.020616151 0.66100001 0.52348232 -0.01870257 -0.85183126 0.0035266466
0.15211751 0.02070817 0.66400003 0.54235113 -0.029930158 -0.83961856 0.0039656623
0.15438044 0.020768985 0.66600001 0.56540227 -0.037041884 -0.82398313 0.004787806
0.15665394 0.020829793 0.66800004 0.59756517 -0.045565993 -0.80052465 0.005555836
0.15870076 0.020859409 0.66900003 0.60955775 -0.049881946 -0.79117078 0.0055917446
0.16075274 0.020889021 0.67000002 0.62335771 -0.05535277 -0.77997518 0.0056400248
0.16280986 0.02091863 0.671 0.63282931 -0.062742196 -0.77174509 0.0054122522
0.16536283 0.02101058 0.67400002 0.65135825 -0.072691903 -0.75528026 0.0049220538
0.16817982 0.021133689 0.67800003 0.67247361 -0.084920086 -0.73523325 0.0044094403
0.17101824 0.021256784 0.68200004 0.69413584 -0.096245006 -0.71338093 0.003632535
0.17387804 0.021379862 0.68600005 0.71841198 -0.1066549 -0.68739289 0.0031919531
0.17599073 0.021409431 0.68700004 0.72941601 -0.10961291 -0.67523122 0.002985087
-0.14242138 0.016699793 0.58700001 0.86293411 0.50220913 0.055952728 0.072292037
-0.1331543 0.0157906 0.55500001 -0.085518688 -0.97871798 -0.1865416 0.090571724
-0.14019056 0.016816119 0.59100002 0.8974824 0.44002324 -0.030080706 0.069376178
-0.13460302 0.016333634 0.574 0.83170807 0.54519486 0.10499679 0.079302624
-0.13286687 0.016506847 0.58000004 0.86740047 0.48966312 0.088579953 0.069907047
-0.13124353 0.016909083 0.59400004 0.91388994 0.40284142 -0.050239217 0.064242363
-0.13094227 0.017081156 0.60000002 0.91671497 0.38430464 -0.10928643 0.061008021
-0.12996162 0.01716784 0.60300004 0.92628604 0.36258766 -0.1025881 0.06447079
-0.12449537 0.016656602 0.58500004 0.90967339 0.41449642 0.026211552 0.065865919
-0.12921129 0.017512077 0.61500001 0.91742045 0.37569886 -0.13111074 0.065792389
-0.12339484 0.016943827 0.59500003 0.93419528 0.34676006 -0.083884515 0.062534519
-0.12259879 0.017058987 0.59900004 0.93320036 0.34017193 -0.11584526 0.063003846
-0.12400227 0.01748745 0.61400002 0.93182147 0.34930596 -0.098458707 0.062262084
-0.12273391 0.017545689 0.61600006 0.94241625 0.32208297 -0.090078406 0.060849912
-0.13159859 0.01934292 0.67900002 -0.78115761 -0.10433815 -0.61555374 0.019774197
-0.13051869 0.019458264 0.68300003 -0.79201722 -0.095967501 -0.60290867 0.015059766
-0.1286632 0.019459644 0.68300003 -0.77973992 -0.093661681 -0.61905831 0.014555753
-0.12606476 0.019347044 0.67900002 -0.74734175 -0.094801389 -0.65764195 0.01853458
