# .PCD v0.7 - Point Cloud Data file format
VERSION 0.7
FIELDS x y z
SIZE 4 4 4
TYPE F F F
COUNT 1 1 1
WIDTH 1408
HEIGHT 1
VIEWPOINT 0 0 0 1 0 0 0
POINTS 1408
DATA ascii
-0.19135363 -0.24668725 0.57100004
-0.18944907 -0.2462339 0.57000005
-0.18663903 -0.24662466 0.57100004
-0.18474463 -0.2461729 0.57000005
-0.1822136 -0.244858 0.56700003
-0.18129273 -0.2457028 0.56900001
-0.17972976 -0.24568442 0.56900001
-0.17848045 -0.24609825 0.57000005
-0.17691579 -0.24608073 0.57000005
-0.17596696 -0.24692704 0.57200003
-0.17470279 -0.24734198 0.57300001
-0.17403793 -0.24862055 0.57600003
-0.17215949 -0.24817298 0.57500005
-0.17117703 -0.24902061 0.57700002
-0.16871445 -0.24771078 0.574
-0.16772471 -0.24855913 0.57600003
-0.16614754 -0.24854477 0.57600003
-0.16514225 -0.24939375 0.57800001
-0.16469239 -0.25110593 0.58200002
-0.16310008 -0.25109255 0.58200002
-0.1615082 -0.25107956 0.58200002
-0.15964191 -0.25063553 0.58100003
-0.15832557 -0.25105467 0.58200002
-0.15673485 -0.25104275 0.58200002
-0.15434475 -0.24973719 0.57900006
-0.1527629 -0.249726 0.57900006
-0.15065919 -0.24885255 0.57700002
-0.14934187 -0.24927329 0.57800001
-0.14776374 -0.24926308 0.57800001
-0.14618592 -0.24925315 0.57800001
-0.14485861 -0.2496748 0.57900006
-0.14327867 -0.24966545 0.57900006
-0.14243318 -0.25094995 0.58200002
-0.14108761 -0.25137234 0.583
-0.13997611 -0.25222608 0.58500004
-0.13790777 -0.2513555 0.583
-0.13608441 -0.25091636 0.58200002
-0.13426676 -0.25047752 0.58100003
-0.13336825 -0.25176337 0.58400005
-0.13200234 -0.25218722 0.58500004
-0.13063116 -0.25261125 0.58600003
-0.12837401 -0.25131124 0.583
-0.12635086 -0.25044262 0.58100003
-0.12476829 -0.25043637 0.58100003
-0.12339793 -0.25086132 0.58200002
-0.12265022 -0.25257954 0.58600003
-0.12126116 -0.25300488 0.58700001
-0.11966296 -0.25299937 0.58700001
-0.11766267 -0.25213212 0.58500004
-0.11626866 -0.25255802 0.58600003
-0.11506502 -0.25341508 0.588
-0.11404364 -0.25470328 0.59100002
-0.11224508 -0.25426778 0.59000003
-0.11063961 -0.2542634 0.59000003
-0.10866468 -0.25339729 0.588
-0.10761114 -0.25468609 0.59100002
-0.10582398 -0.2542513 0.59000003
-0.1038657 -0.25338569 0.588
-0.10226627 -0.25338215 0.588
-0.10066696 -0.25337875 0.588
-0.09957318 -0.25466824 0.59100002
-0.098131657 -0.25509605 0.59200001
-0.096684784 -0.25552395 0.59300005
-0.095232561 -0.25595197 0.59400004
-0.093617372 -0.25594923 0.59400004
-0.092157155 -0.25637749 0.59500003
-0.090539403 -0.25637498 0.59500003
-0.088921726 -0.25637263 0.59500003
-0.087157398 -0.25593948 0.59400004
-0.085254543 -0.25507557 0.59200001
-0.083645225 -0.25507352 0.59200001
-0.081897378 -0.25464073 0.59100002
-0.080562606 -0.25550061 0.59300005
-0.07908386 -0.25592974 0.59400004
-0.077599734 -0.25635892 0.59500003
-0.076237924 -0.25721905 0.597
-0.074490339 -0.2567867 0.59600002
-0.072992757 -0.25721613 0.597
-0.071370229 -0.25721481 0.597
-0.069630913 -0.25678271 0.59600002
-0.068125293 -0.25721237 0.597
-0.066391475 -0.25678042 0.59600002
-0.064989164 -0.25764108 0.59800005
-0.063258119 -0.25720918 0.597
-0.06153255 -0.25677747 0.59600002
-0.059912954 -0.25677657 0.59600002
-0.058195587 -0.25634497 0.59500003
-0.056673847 -0.25677502 0.59600002
-0.054961946 -0.25634348 0.59500003
-0.053434819 -0.25677365 0.59600002
-0.051989205 -0.2576347 0.59800005
-0.050448522 -0.25806499 0.59900004
-0.048902411 -0.25849524 0.60000002
-0.047272105 -0.25849473 0.60000002
-0.045565736 -0.25806347 0.59900004
-0.043938164 -0.25806305 0.59900004
-0.042310603 -0.25806266 0.59900004
-0.040750969 -0.2584931 0.60000002
-0.039120708 -0.25849277 0.60000002
-0.037552949 -0.25892329 0.60100001
-0.03580045 -0.25806138 0.59900004
-0.034172934 -0.25806111 0.59900004
-0.032599751 -0.25849169 0.60000002
-0.031021142 -0.25892228 0.60100001
-0.02938821 -0.2589221 0.60100001
-0.027709093 -0.2584911 0.60000002
-0.026122347 -0.25892177 0.60100001
-0.024530172 -0.25935251 0.60200006
-0.022932563 -0.25978315 0.60300004
-0.021294212 -0.25978306 0.60300004
-0.019688455 -0.26021373 0.60400003
-0.018077269 -0.26064447 0.60500002
-0.016460652 -0.2610752 0.60600001
-0.014838601 -0.26150596 0.60700005
-0.013167659 -0.26107505 0.60600001
-0.011521166 -0.26107502 0.60600001
-0.0098746726 -0.26107496 0.60600001
-0.0082146041 -0.26064411 0.60500002
-0.0065599689 -0.26021326 0.60400003
-0.004918912 -0.26021326 0.60400003
-0.0032778557 -0.26021326 0.60400003
-0.0016367993 -0.26021326 0.60400003
4.2639372e-06 -0.26064402 0.60500002
0.001650761 -0.26107487 0.60600001
0.0032972512 -0.26107487 0.60600001
0.0049437415 -0.26107487 0.60600001
0.0066119819 -0.26193655 0.60800004
0.0082639074 -0.26193658 0.60800004
0.009948452 -0.26279825 0.61000001
0.011643864 -0.26365992 0.61200005
0.013415373 -0.26581407 0.61700004
0.015262973 -0.26882982 0.62400001
0.017094262 -0.27098399 0.62900001
0.018922824 -0.27270734 0.63300002
0.020707907 -0.27356908 0.63500005
0.022503857 -0.27443084 0.63700002
0.024158498 -0.27356932 0.63500005
0.025883801 -0.27356949 0.63500005
0.027391709 -0.2714155 0.63000005
0.028641468 -0.26710746 0.62
0.030326024 -0.26710767 0.62
0.032371998 -0.27012363 0.62700003
0.034673396 -0.27486283 0.63800001
0.036349811 -0.27443227 0.63700002
0.038020797 -0.27400172 0.63600004
0.039748859 -0.27400205 0.63600004
0.041476928 -0.27400237 0.63600004
0.043137062 -0.27357188 0.63500005
0.044862431 -0.27357227 0.63500005
0.046441071 -0.27271101 0.63300002
0.04816103 -0.27271149 0.63300002
0.049802192 -0.27228114 0.63200003
0.05160097 -0.27271247 0.63300002
0.053320967 -0.27271307 0.63300002
0.055040967 -0.27271363 0.63300002
0.056581661 -0.27185267 0.63100004
0.058019105 -0.27056083 0.62800002
0.059535384 -0.26969996 0.62600005
0.061236449 -0.26970077 0.62600005
0.06283699 -0.26927072 0.625
0.064225622 -0.26797917 0.62200004
0.06580992 -0.26754928 0.62100005
0.067606188 -0.26798117 0.62200004
0.069185108 -0.26755142 0.62100005
0.070644498 -0.26669088 0.61900002
0.07185936 -0.26496875 0.61500001
0.073291644 -0.26410833 0.61300004
0.074957654 -0.2641097 0.61300004
0.07649871 -0.26368034 0.61200005
0.077906653 -0.26282015 0.61000001
0.079434201 -0.26239091 0.60900003
0.080956385 -0.26196176 0.60800004
0.08260902 -0.26196355 0.60800004
0.083984546 -0.26110369 0.60600001
0.08563187 -0.26110569 0.60600001
0.086991191 -0.26024604 0.60400003
0.088486455 -0.25981733 0.60300004
0.089826889 -0.25895789 0.60100001
0.091308698 -0.25852942 0.60000002
0.092630245 -0.25767016 0.59800005
0.09425623 -0.25767282 0.59800005
0.095561601 -0.25681376 0.59600002
0.097182319 -0.25681666 0.59600002
0.09880311 -0.25681967 0.59600002
0.100424 -0.25682282 0.59600002
0.10204498 -0.2568261 0.59600002
0.10366607 -0.25682956 0.59600002
0.10546391 -0.25726408 0.597
0.10672918 -0.25640595 0.59500003
0.10816578 -0.25597894 0.59400004
0.10959706 -0.25555205 0.59300005
0.11102302 -0.25512531 0.59200001
0.11282419 -0.25556067 0.59300005
0.11443796 -0.25556529 0.59300005
0.11605186 -0.25557002 0.59300005
0.11766591 -0.25557497 0.59300005
0.11907896 -0.2551491 0.59200001
0.12089447 -0.25558543 0.59300005
0.12230241 -0.25515997 0.59200001
0.12391438 -0.2551657 0.59200001
0.1253145 -0.25474063 0.59100002
0.12692411 -0.25474679 0.59100002
0.12853393 -0.2547532 0.59100002
0.12992372 -0.25432876 0.59000003
0.13153121 -0.25433561 0.59000003
0.13291325 -0.25391161 0.58900005
0.13429005 -0.25348783 0.588
0.13635495 -0.25435758 0.59000003
0.13772951 -0.25393432 0.58900005
0.13957196 -0.25437355 0.59000003
0.14094156 -0.25395077 0.58900005
0.14254797 -0.25395942 0.58900005
0.14415465 -0.25396833 0.58900005
0.14551412 -0.25354633 0.588
0.14761902 -0.25441822 0.59000003
0.1492293 -0.25442803 0.59000003
0.15109552 -0.2548694 0.59100002
0.15270911 -0.25487983 0.59100002
0.15432309 -0.25489062 0.59100002
0.1556735 -0.25447041 0.59000003
0.1567522 -0.25361916 0.588
0.15835899 -0.25363088 0.588
0.16023821 -0.25407431 0.58900005
0.16239803 -0.25494951 0.59100002
0.1637366 -0.25453091 0.59000003
0.16507012 -0.25411266 0.58900005
0.16668159 -0.25412616 0.58900005
0.16857918 -0.25457153 0.59000003
0.17019424 -0.25458586 0.59000003
0.1718097 -0.25460055 0.59000003
0.17371961 -0.25504723 0.59100002
0.17563546 -0.25549436 0.59200001
0.17755727 -0.25594196 0.59300005
0.17948507 -0.25639004 0.59400004
0.18111397 -0.25640696 0.59400004
0.18305103 -0.25685602 0.59500003
0.18468373 -0.25687382 0.59500003
0.18631698 -0.25689211 0.59500003
0.18763496 -0.25647908 0.59400004
0.1899039 -0.25736195 0.59600002
0.19218443 -0.25824541 0.59800005
0.19415243 -0.25869757 0.59900004
0.19579972 -0.25871843 0.59900004
0.19744767 -0.25873983 0.59900004
0.19909628 -0.2587617 0.59900004
0.20074555 -0.25878412 0.59900004
0.20273346 -0.25923914 0.60000002
0.20506822 -0.26012689 0.60200006
0.20707135 -0.26058325 0.60300004
0.20873456 -0.26060799 0.60300004
0.21074754 -0.2610656 0.60400003
0.2127668 -0.26152387 0.60500002
0.2147924 -0.26198283 0.60600001
0.21682438 -0.2624425 0.60700005
0.21886276 -0.26290286 0.60800004
0.22090751 -0.26336393 0.60900003
0.22295871 -0.26382577 0.61000001
0.22464812 -0.26385579 0.61000001
0.2267095 -0.26431906 0.611
0.2280298 -0.26391786 0.61000001
0.22783911 -0.26178634 0.60500002
0.22610423 -0.25792399 0.59600002
0.22470251 -0.25449413 0.588
0.22633679 -0.25452709 0.588
0.22797211 -0.25456071 0.588
0.22882748 -0.25372908 0.58600003
0.22927953 -0.25246486 0.583
0.23090419 -0.25250036 0.583
0.23252995 -0.25253657 0.583
0.23415683 -0.25257352 0.583
0.23538049 -0.25217792 0.58200002
0.23700699 -0.25221637 0.58200002
0.23863468 -0.25225556 0.58200002
0.2398508 -0.25186205 0.58100003
0.24106261 -0.25146919 0.58000004
0.24227011 -0.25107703 0.57900006
0.24347328 -0.25068548 0.57800001
0.24509624 -0.25072846 0.57800001
0.24672055 -0.25077224 0.57800001
0.24920563 -0.25168478 0.58000004
0.25040594 -0.25129643 0.57900006
0.25203738 -0.25134292 0.57900006
0.25367028 -0.25139028 0.57900006
0.25574565 -0.25187284 0.58000004
0.25694066 -0.25148776 0.57900006
0.25723842 -0.25023454 0.57600003
0.25841966 -0.24985082 0.57500005
0.26140589 -0.25120631 0.57800001
0.26441082 -0.25256333 0.58100003
0.26743448 -0.25392187 0.58400005
0.26955533 -0.25441217 0.58500004
0.27122009 -0.25446874 0.58500004
0.27288666 -0.25452632 0.58500004
0.27596304 -0.25589049 0.588
0.27905846 -0.25725639 0.59100002
0.28217301 -0.25862399 0.59400004
0.28387296 -0.25868678 0.59400004
0.28605571 -0.25918633 0.59500003
0.28921357 -0.26055866 0.59800005
0.29239073 -0.26193282 0.60100001
0.29509798 -0.2628729 0.60300004
0.29634216 -0.26250651 0.60200006
0.29758281 -0.26214105 0.60100001
0.29981607 -0.26264921 0.60200006
0.30155659 -0.26272243 0.60200006
0.30279559 -0.26236036 0.60100001
0.30352455 -0.26156271 0.59900004
0.30526361 -0.26163942 0.59900004
0.30649266 -0.26128054 0.59800005
0.30771843 -0.26092267 0.597
0.30790427 -0.25969154 0.59400004
0.30859649 -0.25889829 0.59200001
0.3103281 -0.25898078 0.59200001
0.3115353 -0.25862706 0.59100002
0.31379953 -0.25914994 0.59200001
0.31500646 -0.25879878 0.59100002
0.31674629 -0.25888681 0.59100002
0.31687236 -0.25766173 0.588
0.31969291 -0.25862896 0.59000003
0.32198349 -0.2591598 0.59100002
0.32537869 -0.26056984 0.59400004
0.32769325 -0.26110473 0.59500003
0.32780218 -0.25988555 0.59200001
0.32733971 -0.25822777 0.588
0.32797608 -0.25744897 0.58600003
0.33254257 -0.25974762 0.59100002
0.33544537 -0.26073065 0.59300005
0.33665764 -0.26039645 0.59200001
0.33672407 -0.25918356 0.58900005
0.33907485 -0.25973216 0.59000003
0.34085763 -0.25984251 0.59000003
0.34148261 -0.25907341 0.588
0.34209925 -0.25830534 0.58600003
0.34329441 -0.2579793 0.58500004
0.34448737 -0.2576547 0.58400005
0.34627113 -0.25777292 0.58400005
0.34805888 -0.25789306 0.58400005
0.34865266 -0.25713146 0.58200002
0.35044256 -0.25725502 0.58200002
0.35102633 -0.25649604 0.58000004
0.35221031 -0.25618064 0.57900006
0.35339242 -0.2558668 0.57800001
0.3551873 -0.25599742 0.57800001
0.35822195 -0.25701636 0.58000004
0.35754922 -0.25537813 0.57600003
0.36059931 -0.25640175 0.57800001
0.36617485 -0.25920382 0.58400005
0.36990243 -0.26067874 0.58700001
0.36985409 -0.25949138 0.58400005
0.37042826 -0.25874934 0.58200002
0.37483281 -0.26067764 0.58600003
0.37733954 -0.26127499 0.58700001
0.38050401 -0.26232064 0.58900005
0.38563439 -0.26470667 0.59400004
0.38688788 -0.26442239 0.59300005
0.38682938 -0.26324773 0.59000003
0.38873386 -0.26341328 0.59000003
0.39660326 -0.26760215 0.59900004
0.39655277 -0.26643434 0.59600002
0.39849484 -0.26660943 0.59600002
0.39909929 -0.26589197 0.59400004
0.40374804 -0.26786366 0.59800005
0.40435877 -0.26715106 0.59600002
0.40837178 -0.26868284 0.59900004
0.40898591 -0.26797497 0.597
0.41372401 -0.26996395 0.60100001
0.41780403 -0.27150893 0.60400003
0.42052102 -0.27215919 0.60500002
0.41906142 -0.27011204 0.60000002
0.41757554 -0.26806462 0.59500003
0.4202944 -0.26872206 0.59600002
0.41877612 -0.26667601 0.59100002
0.42363936 -0.26869383 0.59500003
0.42567605 -0.26890999 0.59500003
0.43203381 -0.27184331 0.60100001
0.42616183 -0.26708871 0.59000003
0.42893115 -0.26776597 0.59100002
0.4317157 -0.2684474 0.59200001
-0.20304246 -0.24544702 0.56400001
-0.2014824 -0.24542041 0.56400001
-0.19956866 -0.24495931 0.56300002
-0.19871634 -0.24580398 0.565
-0.19610907 -0.24447407 0.56200004
-0.19421145 -0.24401484 0.56100005
-0.19197665 -0.24312136 0.55900002
-0.19145696 -0.24440296 0.56200004
-0.19058353 -0.24525002 0.56400001
-0.18936458 -0.2456626 0.565
-0.18780838 -0.2456409 0.565
-0.18691219 -0.24648918 0.56700003
-0.1853518 -0.24646839 0.56700003
-0.18379204 -0.2464481 0.56700003
-0.1819115 -0.2459937 0.56600004
-0.18067434 -0.24640898 0.56700003
-0.17911638 -0.24639013 0.56700003
-0.17787212 -0.24680623 0.56800002
-0.17569169 -0.24591929 0.56600004
-0.17413814 -0.24590182 0.56600004
-0.17197528 -0.24501593 0.56400001
-0.17133479 -0.24630257 0.56700003
-0.16977999 -0.24628636 0.56700003
-0.16941249 -0.24800792 0.57100004
-0.16755378 -0.24755813 0.57000005
-0.16599222 -0.24754304 0.57000005
-0.16385415 -0.24665985 0.56800002
-0.16229892 -0.2466456 0.56800002
-0.16159315 -0.24793437 0.57100004
-0.15975034 -0.24748667 0.57000005
-0.15902348 -0.24877594 0.57300001
-0.15800583 -0.24963139 0.57500005
-0.15670556 -0.25005293 0.57600003
-0.15540019 -0.25047475 0.57700002
-0.15302336 -0.24916062 0.574
-0.151191 -0.24871506 0.57300001
-0.1491033 -0.24783581 0.57100004
-0.14780205 -0.24825902 0.57200003
-0.14700703 -0.24955054 0.57500005
-0.14543711 -0.24954028 0.57500005
-0.14361727 -0.24909633 0.574
-0.14205067 -0.24908669 0.574
-0.14097384 -0.24994522 0.57600003
-0.13964437 -0.25037006 0.57700002
-0.13807042 -0.25036123 0.57700002
-0.13626017 -0.24991877 0.57600003
-0.13492329 -0.2503444 0.57700002
-0.13311899 -0.2499025 0.57600003
-0.13200551 -0.25076243 0.57800001
-0.13088137 -0.25162259 0.58000004
-0.12996946 -0.25291669 0.583
-0.12816063 -0.2524758 0.58200002
-0.12592246 -0.25116757 0.57900006
-0.12370084 -0.24985963 0.57600003
-0.12234389 -0.25028709 0.57700002
-0.1214003 -0.25158224 0.58000004
-0.12023396 -0.25244379 0.58200002
-0.11824146 -0.25157058 0.58000004
-0.11666228 -0.25156504 0.58000004
-0.1152817 -0.25199342 0.58100003
-0.11448291 -0.25372317 0.58500004
-0.11308356 -0.25415185 0.58600003
-0.11148866 -0.25414705 0.58600003
-0.10951886 -0.25327507 0.58400005
-0.10774484 -0.25283691 0.583
-0.10634062 -0.25326633 0.58400005
-0.10475169 -0.25326222 0.58400005
-0.10298622 -0.25282463 0.583
-0.10140025 -0.25282085 0.583
-0.099643148 -0.25238356 0.58200002
-0.098397084 -0.25324741 0.58400005
-0.096808694 -0.25324407 0.58400005
-0.095383443 -0.25367451 0.58500004
-0.093792513 -0.25367144 0.58500004
-0.09220168 -0.25366849 0.58500004
-0.090920694 -0.25453293 0.58700001
-0.089324586 -0.25453025 0.58700001
-0.087877989 -0.25496125 0.588
-0.086132579 -0.25452521 0.58700001
-0.08424864 -0.25365567 0.58500004
-0.082799539 -0.25408706 0.58600003
-0.081345052 -0.25451851 0.58700001
-0.079885192 -0.25495005 0.588
-0.078286819 -0.25494814 0.588
-0.076558068 -0.25451273 0.58700001
-0.075217925 -0.25537813 0.58900005
-0.073741958 -0.25581005 0.59000003
-0.072260603 -0.25624204 0.59100002
-0.070534766 -0.25580701 0.59000003
-0.068931222 -0.25580558 0.59000003
-0.067555957 -0.25667137 0.59200001
-0.065947048 -0.25667009 0.59200001
-0.064555548 -0.25753605 0.59400004
-0.062729344 -0.25666773 0.59200001
-0.061017297 -0.25623313 0.59100002
-0.059411235 -0.25623214 0.59100002
-0.057707392 -0.25579765 0.59000003
-0.056009006 -0.2553632 0.58900005
-0.054408453 -0.25536236 0.58900005
-0.05289758 -0.25579512 0.59000003
-0.051468223 -0.25666147 0.59200001
-0.04985958 -0.25666079 0.59200001
-0.048413962 -0.25752723 0.59400004
-0.046563543 -0.25622597 0.59100002
-0.045033734 -0.25665897 0.59200001
-0.043351792 -0.2562249 0.59100002
-0.041887213 -0.25709152 0.59300005
-0.040208016 -0.25665748 0.59200001
-0.038664665 -0.25709063 0.59300005
-0.03705341 -0.25709027 0.59300005
-0.035501927 -0.25752342 0.59400004
-0.033887964 -0.25752306 0.59400004
-0.032328349 -0.2579563 0.59500003
-0.030608455 -0.25708896 0.59300005
-0.028997235 -0.25708869 0.59300005
-0.027386021 -0.25708845 0.59300005
-0.02586174 -0.25795528 0.59500003
-0.024245098 -0.25795507 0.59500003
-0.022628462 -0.2579549 0.59500003
-0.021047145 -0.25838828 0.59600002
-0.019460397 -0.25882164 0.597
-0.017868219 -0.25925508 0.59800005
-0.016297771 -0.26012203 0.60000002
-0.014692008 -0.26055542 0.60100001
-0.013080818 -0.26098889 0.60200006
-0.01142617 -0.26055527 0.60100001
-0.0097769564 -0.26012167 0.60000002
-0.0081331795 -0.25968805 0.59900004
-0.006505698 -0.25968805 0.59900004
-0.0048700739 -0.25925449 0.59800005
-0.0032507377 -0.25968796 0.59900004
-0.0016232576 -0.25968793 0.59900004
4.2287197e-06 -0.26012146 0.60000002
0.001628977 -0.2592544 0.59800005
0.0032591808 -0.25968796 0.59900004
0.0048866612 -0.25968799 0.59900004
0.0065467665 -0.26098865 0.60200006
0.008182399 -0.26098868 0.60200006
0.0098343417 -0.26142228 0.60300004
0.011510745 -0.26228943 0.60500002
0.013306732 -0.26532423 0.61200005
0.01516522 -0.2687926 0.62
0.016958475 -0.27052689 0.62400001
0.018743575 -0.27182764 0.62700003
0.020479755 -0.27226129 0.62800002
0.022256704 -0.27312857 0.63000005
0.023930386 -0.27269518 0.62900001
0.025639402 -0.27269539 0.62900001
0.027217982 -0.271395 0.62600005
0.028456891 -0.26705983 0.61600006
0.030130601 -0.2670601 0.61600006
0.032114096 -0.26966161 0.62200004
0.034401938 -0.27443081 0.63300002
0.03612186 -0.27443117 0.63300002
0.037841782 -0.27443153 0.63300002
0.039499223 -0.27399838 0.63200003
0.041151226 -0.27356523 0.63100004
0.042797819 -0.27313215 0.63000005
0.044509634 -0.27313265 0.63000005
0.046221461 -0.27313319 0.63000005
0.047933303 -0.27313372 0.63000005
0.049487542 -0.27226719 0.62800002
0.051193982 -0.27226785 0.62800002
0.052816201 -0.271835 0.62700003
0.054693848 -0.27270281 0.62900001
0.05622372 -0.27183652 0.62700003
0.05765035 -0.27053669 0.62400001
0.059155796 -0.26967046 0.62200004
0.060846053 -0.26967141 0.62200004
0.062435791 -0.26923886 0.62100005
0.064020112 -0.26880634 0.62
0.065599032 -0.26837388 0.61900002
0.067281254 -0.2683751 0.61900002
0.068740673 -0.26750922 0.61700004
0.07018926 -0.26664338 0.61500001
0.071510166 -0.26534408 0.61200005
0.073053934 -0.26491198 0.611
0.074714594 -0.26491356 0.611
0.076250292 -0.2644816 0.61000001
0.077652887 -0.26361617 0.60800004
0.079175085 -0.26318437 0.60700005
0.080558755 -0.26231909 0.60500002
0.082203336 -0.26232108 0.60500002
0.083570816 -0.26145601 0.60300004
0.085210077 -0.26145819 0.60300004
0.086417317 -0.26015967 0.60000002
0.088048562 -0.26016206 0.60000002
0.089231484 -0.25886375 0.597
0.090854719 -0.25886637 0.597
0.09232311 -0.25843546 0.59600002
0.093786173 -0.25800472 0.59500003
0.095243856 -0.25757411 0.59400004
0.096696213 -0.25714359 0.59300005
0.098308988 -0.25714684 0.59300005
0.099921852 -0.25715023 0.59300005
0.10136358 -0.25672007 0.59200001
0.10297395 -0.25672376 0.59200001
0.1045844 -0.25672758 0.59200001
0.10619499 -0.2567316 0.59200001
0.10744148 -0.25586841 0.59000003
0.10886204 -0.25543904 0.58900005
0.11027727 -0.2550098 0.588
0.11206774 -0.25544816 0.58900005
0.1136708 -0.25545299 0.58900005
0.11527401 -0.25545803 0.58900005
0.11648049 -0.25459579 0.58700001
0.11787742 -0.25416747 0.58600003
0.11947292 -0.25417304 0.58600003
0.12127519 -0.25461257 0.58700001
0.12266444 -0.25418484 0.58600003
0.12426049 -0.25419107 0.58600003
0.1258567 -0.25419751 0.58600003
0.1276706 -0.25463796 0.58700001
0.12860928 -0.25334346 0.58400005
0.13020067 -0.25335059 0.58400005
0.13156657 -0.25292405 0.583
0.13338408 -0.25336555 0.58400005
0.13520724 -0.25380728 0.58500004
0.1370361 -0.25424927 0.58600003
0.13839751 -0.25382382 0.58500004
0.13999301 -0.25383249 0.58500004
0.14158879 -0.25384143 0.58500004
0.14367437 -0.25471854 0.58700001
0.14478119 -0.25386021 0.58500004
0.14662801 -0.25430396 0.58600003
0.14822766 -0.25431412 0.58600003
0.14982761 -0.25432456 0.58600003
0.15142788 -0.25433534 0.58600003
0.15328965 -0.25478047 0.58700001
0.15462947 -0.25435787 0.58600003
0.15623076 -0.25436965 0.58600003
0.15756308 -0.25394765 0.58500004
0.15970652 -0.2548283 0.58700001
0.16131166 -0.25484112 0.58700001
0.16319473 -0.25528848 0.588
0.16452314 -0.25486788 0.58700001
0.1661295 -0.25488183 0.58700001
0.16773629 -0.25489613 0.58700001
0.16963197 -0.25534511 0.588
0.17124242 -0.25536028 0.588
0.17314726 -0.25581011 0.58900005
0.17505808 -0.25626045 0.59000003
0.1772743 -0.25714561 0.59200001
0.17919984 -0.25759697 0.59300005
0.18082644 -0.25761437 0.59300005
0.18245354 -0.25763223 0.59300005
0.18408124 -0.25765055 0.59300005
0.18539627 -0.25723478 0.59200001
0.18702236 -0.25725397 0.59200001
0.18928637 -0.25814289 0.59400004
0.19156195 -0.25903234 0.59600002
0.19320084 -0.25905314 0.59600002
0.1948404 -0.25907448 0.59600002
0.1964806 -0.25909632 0.59600002
0.19845386 -0.25955343 0.597
0.20009819 -0.25957638 0.597
0.2024191 -0.26046956 0.59900004
0.20407034 -0.26049367 0.59900004
0.20606583 -0.26095328 0.60000002
0.20737518 -0.26054364 0.59900004
0.20937769 -0.26100448 0.60000002
0.21138656 -0.261466 0.60100001
0.21375625 -0.26236331 0.60300004
0.21613784 -0.26326144 0.60500002
0.2185314 -0.26416034 0.60700005
0.22057408 -0.26462486 0.60800004
0.2218921 -0.26421952 0.60700005
0.22357386 -0.26425013 0.60700005
0.22562765 -0.26471674 0.60800004
0.22656637 -0.26387784 0.60600001
0.22636501 -0.26173291 0.60100001
0.22386038 -0.25697488 0.59000003
0.22282444 -0.25395867 0.583
0.22483051 -0.25442773 0.58400005
0.22567986 -0.25359038 0.58200002
0.22612861 -0.25231779 0.57900006
0.22734834 -0.25191718 0.57800001
0.22935595 -0.25238904 0.57900006
0.23137018 -0.25286174 0.58000004
0.23258775 -0.25246325 0.57900006
0.23339641 -0.25162926 0.57700002
0.23500973 -0.25166816 0.57700002
0.2366242 -0.25170779 0.57700002
0.23782705 -0.25131196 0.57600003
0.23944126 -0.25135311 0.57600003
0.24021977 -0.2505222 0.574
0.24225232 -0.25100142 0.57500005
0.24386771 -0.25104502 0.57500005
0.24548443 -0.25108942 0.57500005
0.24710259 -0.25113472 0.57500005
0.24828957 -0.25074401 0.574
0.24903706 -0.24991713 0.57200003
0.25108933 -0.25040182 0.57300001
0.25182569 -0.24957636 0.57100004
0.25388381 -0.25006291 0.57200003
0.25460914 -0.24923883 0.57000005
0.25622374 -0.24929005 0.57000005
0.25964937 -0.25109193 0.574
0.26355457 -0.25333312 0.57900006
0.26657382 -0.25470093 0.58200002
0.26730752 -0.25388175 0.58000004
0.2694228 -0.25437662 0.58100003
0.27201211 -0.25531068 0.583
0.27461478 -0.25624624 0.58500004
0.27675843 -0.2567451 0.58600003
0.27890977 -0.25724524 0.58700001
0.28059083 -0.25730842 0.58700001
0.28323564 -0.25824961 0.58900005
0.28686148 -0.26006952 0.59300005
0.2900258 -0.26145279 0.59600002
0.29223058 -0.26196039 0.597
0.29345858 -0.26159158 0.59600002
0.29517829 -0.26166278 0.59600002
0.29739851 -0.2621744 0.597
0.29862475 -0.26180896 0.59600002
0.30035147 -0.26188391 0.59600002
0.30056018 -0.26064163 0.59300005
0.30330262 -0.26159811 0.59500003
0.3045212 -0.26123708 0.59400004
0.30522096 -0.26043719 0.59200001
0.30591166 -0.25963813 0.59000003
0.30659327 -0.25883988 0.588
0.30831456 -0.25892311 0.588
0.30898401 -0.2581268 0.58600003
0.31123519 -0.25865319 0.58700001
0.31349498 -0.25918132 0.588
0.31522745 -0.25927031 0.588
0.31696284 -0.25936073 0.588
0.31870118 -0.25945267 0.588
0.32044256 -0.25954613 0.588
0.32273498 -0.26008269 0.58900005
0.32393461 -0.25973767 0.588
0.32513157 -0.25939393 0.58700001
0.32465518 -0.25772521 0.583
0.32583773 -0.2573835 0.58200002
0.3287062 -0.25837028 0.58400005
0.33159003 -0.25935942 0.58600003
0.33221394 -0.25857991 0.58400005
0.3328293 -0.25780132 0.58200002
0.33458599 -0.25791004 0.58200002
0.33692428 -0.25846386 0.583
0.33694851 -0.25724569 0.58000004
0.33871025 -0.25735936 0.58000004
0.33988878 -0.25703087 0.57900006
0.34165516 -0.25714797 0.57900006
0.34223923 -0.25637823 0.57700002
0.34400743 -0.25649866 0.57700002
0.34458122 -0.25573149 0.57500005
0.34755623 -0.25674525 0.57700002
0.34933695 -0.25687146 0.57700002
0.35233906 -0.25789052 0.57900006
0.35413462 -0.25802121 0.57900006
0.35531992 -0.25770807 0.57800001
0.35650352 -0.25739655 0.57700002
0.35520157 -0.25530136 0.57200003
0.35636944 -0.25499219 0.57100004
0.36192659 -0.25781235 0.57700002
0.36563513 -0.25929651 0.58000004
0.36683327 -0.25899512 0.57900006
0.36803013 -0.25869548 0.57800001
0.37306523 -0.26108462 0.583
0.37620813 -0.26213443 0.58500004
0.38001543 -0.26363605 0.588
0.38384745 -0.26514173 0.59100002
0.38117734 -0.26216248 0.58400005
0.38174745 -0.2614277 0.58200002
0.38494697 -0.26249227 0.58400005
0.39280206 -0.26670882 0.59300005
0.39140254 -0.26463249 0.588
0.39064553 -0.26300621 0.58400005
0.39188501 -0.26273218 0.583
0.39582613 -0.26426408 0.58600003
0.39911458 -0.2653493 0.588
0.40378699 -0.26734179 0.59200001
0.40917793 -0.2697916 0.597
0.41529772 -0.27269986 0.60300004
0.41592807 -0.27199444 0.60100001
0.41655219 -0.27129078 0.59900004
0.41577256 -0.26968229 0.59500003
0.41707981 -0.26943496 0.59400004
0.41838771 -0.26919004 0.59300005
0.4140248 -0.26531312 0.58400005
0.41388226 -0.26416093 0.58100003
0.4173058 -0.26528487 0.583
0.41859323 -0.26504734 0.58200002
0.41915894 -0.26435652 0.58000004
0.42625427 -0.26777306 0.58700001
0.43048802 -0.2693722 0.59000003
-0.20281708 -0.24485607 0.55900002
-0.19982922 -0.24307659 0.55500001
-0.19936532 -0.24436356 0.55800003
-0.19782205 -0.24433719 0.55800003
-0.1962796 -0.24431139 0.55800003
-0.19403993 -0.2434106 0.55600005
-0.19250453 -0.24338602 0.55600005
-0.19131331 -0.24379967 0.55700004
-0.19011731 -0.2442138 0.55800003
-0.18857853 -0.24419074 0.55800003
-0.18670528 -0.24373066 0.55700004
-0.18550304 -0.24414621 0.55800003
-0.18528506 -0.24587472 0.56200004
-0.18439181 -0.24672849 0.56400001
-0.18251562 -0.24627031 0.56300002
-0.18000267 -0.24493793 0.56
-0.17878161 -0.2453557 0.56100005
-0.17755559 -0.24577382 0.56200004
-0.17632467 -0.24619232 0.56300002
-0.17446789 -0.24573673 0.56200004
-0.17200178 -0.24440721 0.55900002
-0.17016257 -0.24395269 0.55800003
-0.16923599 -0.24481015 0.56
-0.16769998 -0.24479364 0.56
-0.16705467 -0.24608888 0.56300002
-0.16462947 -0.24476188 0.56
-0.16396862 -0.24605775 0.56300002
-0.16184931 -0.24516875 0.56100005
-0.1600271 -0.2447172 0.56
-0.15849385 -0.24470308 0.56
-0.15752161 -0.24556325 0.56200004
-0.15709391 -0.2472975 0.56600004
-0.15636988 -0.24859503 0.56900001
-0.15535778 -0.24945593 0.57100004
-0.15433511 -0.25031707 0.57300001
-0.15250203 -0.24986796 0.57200003
-0.15067476 -0.24941926 0.57100004
-0.14885335 -0.24897091 0.57000005
-0.14755452 -0.24939649 0.57100004
-0.14676194 -0.25069582 0.574
-0.1454474 -0.25112194 0.57500005
-0.14362724 -0.25067487 0.574
-0.14156537 -0.24979143 0.57200003
-0.14000422 -0.24978173 0.57200003
-0.13820134 -0.24933568 0.57100004
-0.13664347 -0.24932656 0.57100004
-0.13532245 -0.24975435 0.57200003
-0.13423006 -0.25061896 0.574
-0.13266478 -0.25061065 0.574
-0.13132815 -0.25103918 0.57500005
-0.1299863 -0.25146791 0.57600003
-0.12908509 -0.25277001 0.57900006
-0.12772733 -0.25319913 0.58000004
-0.12571183 -0.25231889 0.57800001
-0.12370744 -0.25143895 0.57600003
-0.12171414 -0.25055924 0.574
-0.12056924 -0.25142583 0.57600003
-0.11920699 -0.25185612 0.57700002
-0.11783949 -0.25228658 0.57800001
-0.11606441 -0.25184429 0.57700002
-0.11469179 -0.25227514 0.57800001
-0.1135096 -0.25314265 0.58000004
-0.1121237 -0.25357383 0.58100003
-0.11054222 -0.25356877 0.58100003
-0.10877336 -0.25312749 0.58000004
-0.10701007 -0.25268638 0.57900006
-0.10561655 -0.25311828 0.58000004
-0.10385896 -0.25267753 0.57900006
-0.10246024 -0.25310978 0.58000004
-0.10088227 -0.25310573 0.58000004
-0.0993044 -0.25310189 0.58000004
-0.097895138 -0.25353456 0.58100003
-0.096314758 -0.25353098 0.58100003
-0.094897546 -0.25396392 0.58200002
-0.093474962 -0.25439698 0.583
-0.091574207 -0.25352111 0.58100003
-0.090149097 -0.25395444 0.58200002
-0.088262096 -0.25307888 0.58000004
-0.086983874 -0.25394875 0.58200002
-0.085254654 -0.25350979 0.58100003
-0.083962977 -0.2543799 0.583
-0.082236625 -0.25394118 0.58200002
-0.0809315 -0.25481153 0.58400005
-0.079207972 -0.25437292 0.583
-0.077756226 -0.25480717 0.58400005
-0.075777397 -0.2534962 0.58100003
-0.074581183 -0.25480321 0.58400005
-0.072993733 -0.25480139 0.58400005
-0.071650885 -0.25567225 0.58600003
-0.069938548 -0.2552343 0.58500004
-0.068231687 -0.25479645 0.58400005
-0.066872641 -0.25566751 0.58600003
-0.065279976 -0.25566608 0.58600003
-0.063796021 -0.25610101 0.58700001
-0.061988782 -0.25522718 0.58500004
-0.060398933 -0.25522596 0.58500004
-0.058809116 -0.25522482 0.58500004
-0.057219323 -0.25522372 0.58500004
-0.055629559 -0.25522271 0.58500004
-0.053947456 -0.25478551 0.58400005
-0.052539766 -0.25565711 0.58600003
-0.051208179 -0.25696507 0.58900005
-0.049523409 -0.25652796 0.588
-0.047925606 -0.25652722 0.588
-0.04601267 -0.25478145 0.58400005
-0.044501834 -0.25521702 0.58500004
-0.04291223 -0.25521642 0.58500004
-0.041393276 -0.25565207 0.58600003
-0.039800987 -0.25565153 0.58600003
-0.038273904 -0.25608727 0.58700001
-0.03680389 -0.25695932 0.58900005
-0.035203476 -0.25695887 0.58900005
-0.033660129 -0.25739473 0.59000003
-0.032057017 -0.25739434 0.59000003
-0.03035068 -0.25652146 0.588
-0.028704124 -0.25608486 0.58700001
-0.027201556 -0.25695708 0.58900005
-0.025644654 -0.25739303 0.59000003
-0.024082329 -0.25782904 0.59100002
-0.022514571 -0.25826505 0.59200001
-0.020906072 -0.25826484 0.59200001
-0.019297576 -0.25826463 0.59200001
-0.017689086 -0.25826448 0.59200001
-0.016080597 -0.2582643 0.59200001
-0.014496561 -0.25870043 0.59300005
-0.012885359 -0.25870028 0.59300005
-0.011293175 -0.25913644 0.59400004
-0.0096466718 -0.25826383 0.59200001
-0.0080381949 -0.25826374 0.59200001
-0.0064297197 -0.25826368 0.59200001
-0.0048212456 -0.25826362 0.59200001
-0.0032182001 -0.25869986 0.59300005
-0.0016070103 -0.25869986 0.59300005
4.179416e-06 -0.25869983 0.59300005
0.0016126449 -0.25826359 0.59200001
0.0032211174 -0.25826359 0.59200001
0.0048377491 -0.25869989 0.59300005
0.00647069 -0.25957245 0.59500003
0.0080737248 -0.25913626 0.59400004
0.0097039454 -0.25957263 0.59500003
0.011396678 -0.26131773 0.59900004
0.013176379 -0.2643716 0.60600001
0.015018583 -0.26786184 0.61400002
0.016822727 -0.27004325 0.61900002
0.018564368 -0.27091596 0.62100005
0.020284262 -0.27135238 0.62200004
0.022044927 -0.27222511 0.62400001
0.023702327 -0.27178907 0.62300003
0.025395058 -0.27178934 0.62300003
0.027044322 -0.27135336 0.62200004
0.028226184 -0.26655477 0.611
0.02988633 -0.2665551 0.611
0.03180464 -0.26873678 0.61600006
0.034184907 -0.27440852 0.62900001
0.035951056 -0.27484524 0.63000005
0.037543289 -0.27397311 0.62800002
0.03924967 -0.27397361 0.62800002
0.04089085 -0.27353787 0.62700003
0.042594537 -0.27353844 0.62700003
0.044227581 -0.27310273 0.62600005
0.046001952 -0.27353963 0.62700003
0.04770568 -0.27354032 0.62700003
0.04917302 -0.27223223 0.62400001
0.050787106 -0.2717967 0.62300003
0.052564252 -0.27223375 0.62400001
0.054259904 -0.27223465 0.62400001
0.05586591 -0.2717993 0.62300003
0.057374109 -0.27092773 0.62100005
0.058871459 -0.27005616 0.61900002
0.060455788 -0.26962095 0.61800003
0.062135261 -0.26962212 0.61800003
0.063711502 -0.26918706 0.61700004
0.065282345 -0.26875204 0.61600006
0.066847771 -0.26831707 0.61500001
0.06851922 -0.2683185 0.61500001
0.069962442 -0.26744741 0.61300004
0.071277983 -0.2661401 0.61000001
0.072935961 -0.26614174 0.61000001
0.074593991 -0.26614347 0.61000001
0.076002054 -0.26527268 0.60800004
0.077399299 -0.26440197 0.60600001
0.078916147 -0.26396763 0.60500002
0.080427632 -0.26353341 0.60400003
0.081797853 -0.26266298 0.60200006
0.083295859 -0.26222897 0.60100001
0.084929794 -0.26223135 0.60100001
0.086419769 -0.26179752 0.60000002
0.087904379 -0.2613638 0.59900004
0.089084677 -0.26005751 0.59600002
0.090553135 -0.259624 0.59500003
0.09201622 -0.25919065 0.59400004
0.093473963 -0.25875738 0.59300005
0.095086679 -0.25876057 0.59300005
0.096699499 -0.25876394 0.59300005
0.098312415 -0.25876743 0.59300005
0.099756919 -0.25833467 0.59200001
0.10119609 -0.25790209 0.59100002
0.10262994 -0.25746962 0.59000003
0.10423513 -0.25747374 0.59000003
0.10566104 -0.25704157 0.58900005
0.10726374 -0.25704598 0.58900005
0.10868174 -0.25661415 0.588
0.11009443 -0.25618249 0.58700001
0.11169209 -0.25618741 0.58700001
0.11328989 -0.25619254 0.58700001
0.11469213 -0.25576138 0.58600003
0.11608906 -0.25533041 0.58500004
0.11748073 -0.25489962 0.58400005
0.11927488 -0.25534201 0.58500004
0.12086805 -0.25534809 0.58500004
0.12267072 -0.25579092 0.58600003
0.12405492 -0.25536093 0.58500004
0.12564863 -0.2553677 0.58500004
0.12724257 -0.25537467 0.58500004
0.12839621 -0.25450882 0.583
0.12976216 -0.25407973 0.58200002
0.13134854 -0.25408739 0.58200002
0.13316357 -0.25453192 0.583
0.1349843 -0.25497675 0.58400005
0.13657685 -0.25498524 0.58400005
0.13793305 -0.25455734 0.583
0.13928404 -0.25412971 0.58200002
0.14111397 -0.25457567 0.583
0.14294964 -0.25502196 0.58400005
0.14454356 -0.25503188 0.58400005
0.14638798 -0.2554788 0.58500004
0.14798522 -0.25548932 0.58500004
0.14958274 -0.25550017 0.58500004
0.15092218 -0.25507456 0.58400005
0.1522565 -0.25464925 0.583
0.15411347 -0.25509787 0.58400005
0.15570965 -0.25511 0.58400005
0.15757555 -0.25555936 0.58500004
0.15944728 -0.2560091 0.58600003
0.16132489 -0.25645924 0.58700001
0.16265324 -0.25603601 0.58600003
0.16453712 -0.25648692 0.58700001
0.16642691 -0.25693834 0.588
0.16832261 -0.25739017 0.58900005
0.17022423 -0.25784242 0.59000003
0.1718405 -0.25785813 0.59000003
0.17345729 -0.25787422 0.59000003
0.17537129 -0.25832781 0.59100002
0.17699181 -0.2583448 0.59100002
0.17831059 -0.25792509 0.59000003
0.17931947 -0.25706851 0.588
0.18154874 -0.25796118 0.59000003
0.18316865 -0.25797996 0.59000003
0.18510233 -0.25843647 0.59100002
0.18672617 -0.2584562 0.59100002
0.18866923 -0.25891376 0.59200001
0.19061847 -0.25937194 0.59300005
0.1925738 -0.25983062 0.59400004
0.19388141 -0.259415 0.59300005
0.1961733 -0.26031232 0.59500003
0.19781193 -0.26033524 0.59500003
0.2001217 -0.26123384 0.597
0.20176728 -0.26125795 0.597
0.20375437 -0.2617203 0.59800005
0.20540418 -0.26174554 0.59800005
0.20740101 -0.26220915 0.59900004
0.2094042 -0.26267344 0.60000002
0.21106192 -0.26270056 0.60000002
0.2127205 -0.2627283 0.60000002
0.21545182 -0.26407045 0.60300004
0.21784055 -0.26497552 0.60500002
0.21951555 -0.26500541 0.60500002
0.2211915 -0.26503593 0.60500002
0.2225 -0.26462898 0.60400003
0.22454619 -0.26509899 0.60500002
0.22547717 -0.26425508 0.60300004
0.22489122 -0.26165843 0.597
0.22237554 -0.25687015 0.58600003
0.22056426 -0.25295812 0.57700002
0.22216935 -0.25299188 0.57700002
0.22299983 -0.25214931 0.57500005
0.22421081 -0.25174576 0.574
0.22581071 -0.25178143 0.574
0.22741172 -0.25181791 0.574
0.22901386 -0.25185508 0.574
0.23021539 -0.2514542 0.57300001
0.23181704 -0.2514928 0.57300001
0.23423468 -0.25241017 0.57500005
0.23502401 -0.2515724 0.57300001
0.23662934 -0.25161338 0.57300001
0.23740441 -0.2507768 0.57100004
0.23858817 -0.25038001 0.57000005
0.23976761 -0.24998386 0.56900001
0.24263953 -0.25134608 0.57200003
0.24424869 -0.25139114 0.57200003
0.24671893 -0.25231621 0.574
0.24703865 -0.25104421 0.57100004
0.24777836 -0.25021231 0.56900001
0.24894656 -0.24982083 0.56800002
0.25011066 -0.24943008 0.56700003
0.25171453 -0.24948007 0.56700003
0.25242645 -0.24865079 0.565
0.25402781 -0.24870248 0.565
0.25744063 -0.25051621 0.56900001
0.26087782 -0.25233167 0.57300001
0.26433942 -0.2541489 0.57700002
0.26552069 -0.25376511 0.57600003
0.26762569 -0.25426346 0.57700002
0.2697382 -0.25476304 0.57800001
0.27232784 -0.25570479 0.58000004
0.27398604 -0.25576609 0.58000004
0.27612141 -0.25626954 0.58100003
0.27778637 -0.25633314 0.58100003
0.28089634 -0.25772178 0.58400005
0.28354171 -0.25867081 0.58600003
0.28717417 -0.26050454 0.59000003
0.28936297 -0.26101542 0.59100002
0.29205227 -0.26196957 0.59300005
0.29277381 -0.26115778 0.59100002
0.29547921 -0.26211488 0.59300005
0.29669499 -0.26174727 0.59200001
0.29941958 -0.26270753 0.59400004
0.2991164 -0.26101518 0.59000003
0.3013418 -0.26153576 0.59100002
0.30254996 -0.26117262 0.59000003
0.30427057 -0.26125333 0.59000003
0.3049565 -0.26044953 0.588
0.30563337 -0.25964656 0.58600003
0.30682573 -0.25928763 0.58500004
0.30854234 -0.25937319 0.58500004
0.31079212 -0.25990367 0.58600003
0.311984 -0.2595486 0.58500004
0.31317285 -0.25919467 0.58400005
0.31435868 -0.2588419 0.583
0.31608376 -0.2589345 0.583
0.31781188 -0.25902858 0.583
0.31899494 -0.25867978 0.58200002
0.31962413 -0.25788754 0.58000004
0.32024458 -0.2570962 0.57800001
0.32141334 -0.25675079 0.57700002
0.32257941 -0.25640664 0.57600003
0.32543191 -0.25739971 0.57800001
0.32829979 -0.25839522 0.58000004
0.32890695 -0.25761032 0.57800001
0.33007771 -0.25727227 0.57700002
0.33182102 -0.25738168 0.57700002
0.3324118 -0.25660032 0.57500005
0.33299407 -0.25581992 0.57300001
0.33473635 -0.25593385 0.57300001
0.3370696 -0.25649643 0.574
0.33882257 -0.25661421 0.574
0.33939284 -0.25583935 0.57200003
0.34114766 -0.25596043 0.57200003
0.34050855 -0.2542927 0.56800002
0.34105414 -0.25352097 0.56600004
0.34583116 -0.25588727 0.57100004
0.34820831 -0.25646436 0.57200003
0.35243168 -0.25838971 0.57600003
0.35176459 -0.25672835 0.57200003
0.35354942 -0.25686345 0.57200003
0.35409644 -0.25610206 0.57000005
0.35650864 -0.25669044 0.57100004
0.36081445 -0.2586309 0.57500005
0.36388901 -0.25967544 0.57700002
0.36571351 -0.2598227 0.57700002
0.36690608 -0.25952166 0.57600003
0.36937776 -0.26012403 0.57700002
0.37121773 -0.2602782 0.57700002
0.37500268 -0.26178887 0.58000004
0.37751281 -0.2624003 0.58100003
0.3774229 -0.2612071 0.57800001
0.37666321 -0.25956249 0.574
0.37983999 -0.26063308 0.57600003
0.38568628 -0.26351845 0.58200002
0.3835862 -0.2609731 0.57600003
0.38412979 -0.26024023 0.574
0.38533896 -0.25996253 0.57300001
0.39465716 -0.2651349 0.58400005
0.39590514 -0.2648651 0.583
0.40192997 -0.26778001 0.58900005
0.40320113 -0.26751691 0.588
0.40791777 -0.26953253 0.59200001
0.41059089 -0.27018696 0.59300005
0.40840751 -0.26765326 0.58700001
0.40758914 -0.26603115 0.583
0.41026357 -0.26669261 0.58400005
0.4115403 -0.26644385 0.583
0.41139919 -0.26528278 0.58000004
0.41124505 -0.26412266 0.57700002
0.41394266 -0.26479602 0.57800001
0.41593534 -0.26501495 0.57800001
0.4193821 -0.26615489 0.58000004
0.42357731 -0.26775903 0.583
0.42999187 -0.27074796 0.58900005
-0.20867316 -0.24609353 0.55800003
-0.20601054 -0.24473989 0.55500001
-0.20410235 -0.24426907 0.55400002
-0.20220058 -0.24379899 0.55300003
-0.20103094 -0.24421126 0.55400002
-0.19877633 -0.24330173 0.55200005
-0.19760562 -0.24371515 0.55300003
-0.19643019 -0.24412906 0.55400002
-0.19419461 -0.24322161 0.55200005
-0.19162183 -0.24187429 0.54900002
-0.19045147 -0.24228995 0.55000001
-0.18996337 -0.24358705 0.55300003
-0.18911865 -0.24444395 0.55500001
-0.18691164 -0.24353963 0.55300003
-0.18471634 -0.24263604 0.551
-0.18419515 -0.24393468 0.55400002
-0.18299863 -0.24435303 0.55500001
-0.18245122 -0.2456523 0.55800003
-0.18091524 -0.24563123 0.55800003
-0.17873695 -0.24473035 0.55600005
-0.17688896 -0.24427016 0.55500001
-0.17536306 -0.24425068 0.55500001
-0.17415094 -0.24467169 0.55600005
-0.17231292 -0.24421301 0.55500001
-0.1698655 -0.24287492 0.55200005
-0.16835001 -0.24285731 0.55200005
-0.16713728 -0.24328004 0.55300003
-0.16651857 -0.24458294 0.55600005
-0.16529037 -0.24500635 0.55700004
-0.16346917 -0.24455045 0.55600005
-0.16165389 -0.24409497 0.55500001
-0.16013309 -0.24407975 0.55500001
-0.15832692 -0.24362516 0.55400002
-0.15709276 -0.24405044 0.55500001
-0.15613388 -0.2449158 0.55700004
-0.15571959 -0.24666075 0.56100005
-0.15528381 -0.24840589 0.565
-0.15401024 -0.2488323 0.56600004
-0.15273155 -0.24925902 0.56700003
-0.15171441 -0.25012562 0.56900001
-0.15015888 -0.25011337 0.56900001
-0.14834258 -0.24966189 0.56800002
-0.14704894 -0.25008982 0.56900001
-0.14651725 -0.25183657 0.57300001
-0.14520513 -0.25226504 0.574
-0.14363763 -0.25225428 0.574
-0.14157541 -0.25136498 0.57200003
-0.1397692 -0.25091544 0.57100004
-0.13796873 -0.25046626 0.57000005
-0.13641331 -0.25045678 0.57000005
-0.13485816 -0.25044757 0.57000005
-0.13330325 -0.25043866 0.57000005
-0.13174865 -0.25043005 0.57000005
-0.13042265 -0.25086099 0.57100004
-0.12931713 -0.25173149 0.57300001
-0.12864687 -0.25348079 0.57700002
-0.12729432 -0.25391236 0.57800001
-0.12571903 -0.25390488 0.57800001
-0.12371439 -0.25301909 0.57600003
-0.12214494 -0.25301209 0.57600003
-0.12078504 -0.25344458 0.57700002
-0.11941987 -0.25387725 0.57800001
-0.11723392 -0.25255325 0.57500005
-0.11566795 -0.25254714 0.57500005
-0.11390372 -0.25210205 0.574
-0.11273222 -0.25297475 0.57600003
-0.11116404 -0.25296926 0.57600003
-0.10978624 -0.25340313 0.57700002
-0.10784054 -0.25251967 0.57500005
-0.10609066 -0.25207555 0.574
-0.10452848 -0.25207081 0.574
-0.1033252 -0.25294456 0.57600003
-0.10211115 -0.25381836 0.57800001
-0.1007124 -0.25425324 0.57900006
-0.098965868 -0.25380999 0.57800001
-0.097224906 -0.25336692 0.57700002
-0.095323712 -0.25248495 0.57500005
-0.094085723 -0.2533595 0.57700002
-0.092516273 -0.25335598 0.57700002
-0.091262177 -0.25423083 0.57900006
-0.089532562 -0.25378844 0.57800001
-0.08780849 -0.25334626 0.57700002
-0.08623939 -0.25334331 0.57700002
-0.08467038 -0.25334045 0.57700002
-0.083245456 -0.25377676 0.57800001
-0.081815191 -0.25421324 0.57900006
-0.080379523 -0.25464976 0.58000004
-0.078802638 -0.25464737 0.58000004
-0.077225797 -0.25464505 0.58000004
-0.075127304 -0.25288671 0.57600003
-0.073433749 -0.25244558 0.57500005
-0.071870685 -0.25244361 0.57500005
-0.070674479 -0.25375876 0.57800001
-0.069103353 -0.25375697 0.57800001
-0.067532264 -0.25375521 0.57800001
-0.066075347 -0.25419262 0.57900006
-0.064613037 -0.25463006 0.58000004
-0.063253999 -0.25550658 0.58200002
-0.061460271 -0.25462714 0.58000004
-0.059987191 -0.25506479 0.58100003
-0.058307655 -0.25462452 0.58000004
-0.057024822 -0.25594029 0.583
-0.055345342 -0.25550014 0.58200002
-0.053671319 -0.25506005 0.58100003
-0.052092418 -0.25505897 0.58100003
-0.050687425 -0.25593603 0.583
-0.049103137 -0.25593507 0.583
-0.047518868 -0.25593418 0.583
-0.045698255 -0.25461641 0.58000004
-0.044198245 -0.25505462 0.58100003
-0.042472761 -0.25417593 0.57900006
-0.040970072 -0.2546142 0.58000004
-0.039394043 -0.25461358 0.58000004
-0.037818026 -0.25461295 0.58000004
-0.036304511 -0.25505137 0.58100003
-0.034785569 -0.25548983 0.58200002
-0.033204157 -0.25548932 0.58200002
-0.031677086 -0.25592783 0.583
-0.030041361 -0.25548843 0.58200002
-0.028459975 -0.25548801 0.58200002
-0.026878601 -0.25548765 0.58200002
-0.025384165 -0.2563653 0.58400005
-0.023797367 -0.25636497 0.58400005
-0.022248605 -0.25680363 0.58500004
-0.02069442 -0.25724238 0.58600003
-0.019102206 -0.25724211 0.58600003
-0.017480114 -0.25680292 0.58500004
-0.015917789 -0.2572417 0.58600003
-0.014325588 -0.25724152 0.58600003
-0.012733389 -0.25724137 0.58600003
-0.01112218 -0.25680223 0.58500004
-0.009532704 -0.25680211 0.58500004
-0.007929652 -0.25636303 0.58400005
-0.0063537573 -0.25680193 0.58500004
-0.0047724298 -0.25724086 0.58600003
-0.0031910969 -0.25811875 0.588
-0.0015934762 -0.25811872 0.588
4.1442172e-06 -0.25811869 0.588
0.0015963163 -0.25724077 0.58600003
0.0031939442 -0.25767979 0.58700001
0.0047888486 -0.25767982 0.58700001
0.0063946284 -0.25811884 0.588
0.0079786601 -0.25767997 0.58700001
0.0096061882 -0.25855803 0.58900005
0.01132069 -0.26119202 0.59500003
0.013133031 -0.26514298 0.60400003
0.014945359 -0.26821598 0.611
0.016714199 -0.26997206 0.61500001
0.018444987 -0.27085024 0.61700004
0.020121429 -0.27085051 0.61700004
0.021797873 -0.27085075 0.61700004
0.023474323 -0.27085105 0.61700004
0.025191538 -0.2712903 0.61800003
0.02695768 -0.27216861 0.62
0.028087933 -0.2669012 0.60800004
0.029642127 -0.26602364 0.60600001
0.031340357 -0.26646304 0.60700005
0.033859257 -0.27348721 0.62300003
0.035609134 -0.27392671 0.62400001
0.037304666 -0.27392724 0.62400001
0.038937721 -0.27348882 0.62300003
0.04063056 -0.27348945 0.62300003
0.042323422 -0.2734901 0.62300003
0.04401629 -0.27349079 0.62300003
0.045709178 -0.27349153 0.62300003
0.047325999 -0.27305332 0.62200004
0.048858598 -0.27217615 0.62
0.050461866 -0.27173802 0.61900002
0.052143961 -0.27173898 0.61900002
0.053826075 -0.27173996 0.61900002
0.055508215 -0.27174097 0.61900002
0.057098001 -0.27130312 0.61800003
0.058682363 -0.27086526 0.61700004
0.060261324 -0.2704275 0.61600006
0.061834879 -0.26998979 0.61500001
0.063506298 -0.2699911 0.61500001
0.064965785 -0.26911452 0.61300004
0.066631846 -0.26911607 0.61300004
0.067963675 -0.26780057 0.61000001
0.069507532 -0.26736322 0.60900003
0.070929132 -0.26648694 0.60700005
0.072579034 -0.26648873 0.60700005
0.074228995 -0.26649064 0.60700005
0.075503983 -0.26517552 0.60400003
0.077018164 -0.26473862 0.60300004
0.078526966 -0.26430178 0.60200006
0.080030389 -0.26386499 0.60100001
0.081392549 -0.26298928 0.59900004
0.082743905 -0.26211363 0.597
0.084367074 -0.26211622 0.597
0.085702255 -0.26124084 0.59500003
0.087173387 -0.26080459 0.59400004
0.088639155 -0.26036847 0.59300005
0.090099558 -0.25993243 0.59200001
0.091554604 -0.25949651 0.59100002
0.093161948 -0.25949982 0.59100002
0.094769381 -0.2595033 0.59100002
0.09670306 -0.2603851 0.59300005
0.098150313 -0.25994971 0.59200001
0.099423736 -0.2590754 0.59000003
0.10051514 -0.25776207 0.58700001
0.1021122 -0.25776622 0.58700001
0.10370939 -0.2577706 0.58700001
0.1053067 -0.25777507 0.58700001
0.10690413 -0.25777978 0.58700001
0.10850171 -0.25778463 0.58700001
0.10991184 -0.2573505 0.58600003
0.11131669 -0.25691655 0.58500004
0.11290923 -0.25692192 0.58500004
0.11450194 -0.25692752 0.58500004
0.11589636 -0.2564941 0.58400005
0.11708431 -0.25562167 0.58200002
0.11866933 -0.25562784 0.58200002
0.12046116 -0.25607345 0.583
0.12204928 -0.25608009 0.583
0.12342552 -0.25564766 0.58200002
0.1250113 -0.25565475 0.58200002
0.1268148 -0.25610131 0.583
0.12818347 -0.25566956 0.58200002
0.12976989 -0.25567734 0.58200002
0.13113083 -0.2552461 0.58100003
0.13294341 -0.2556937 0.58200002
0.13453051 -0.25570226 0.58200002
0.13611789 -0.25571111 0.58200002
0.13770552 -0.25572023 0.58200002
0.1392934 -0.25572962 0.58200002
0.14088155 -0.25573927 0.58200002
0.14271481 -0.25618869 0.583
0.14430627 -0.25619897 0.583
0.14564779 -0.25577009 0.58200002
0.14698416 -0.25534147 0.58100003
0.14857109 -0.25535268 0.58100003
0.14989993 -0.25492468 0.58000004
0.15174599 -0.25537607 0.58100003
0.15359785 -0.25582778 0.58200002
0.15518889 -0.2558403 0.58200002
0.15704969 -0.25629285 0.583
0.15891637 -0.25674576 0.58400005
0.16078889 -0.25719911 0.58500004
0.16238971 -0.25721318 0.58500004
0.16371059 -0.25678793 0.58400005
0.1655926 -0.25724247 0.58500004
0.16719468 -0.25725767 0.58500004
0.16908576 -0.25771311 0.58600003
0.17069151 -0.25772917 0.58600003
0.17288581 -0.25862533 0.588
0.17420125 -0.25820246 0.58700001
0.17611073 -0.25865972 0.588
0.1774217 -0.25823766 0.58700001
0.17903273 -0.25825593 0.58700001
0.18064432 -0.25827467 0.58700001
0.18287744 -0.25917393 0.58900005
0.18480887 -0.25963372 0.59000003
