# .PCD v0.7 - Point Cloud Data file format
VERSION 0.7
FIELDS x y z normal_x normal_y normal_z curvature
SIZE 4 4 4 4 4 4 4
TYPE F F F F F F F
COUNT 1 1 1 1 1 1 1
WIDTH 590
HEIGHT 1
VIEWPOINT 0 0 0 1 0 0 0
POINTS 590
DATA ascii
-0.17647465 0.11836423 0.60100001 -0.64191794 -0.077188209 -0.76287836 0.031106809
-0.17397495 0.1177782 0.59800005 -0.647524 -0.076199464 -0.7582258 0.044186715
-0.17149144 0.11719219 0.59500003 -0.64557451 -0.07183443 -0.76031137 0.048924915
-0.16988073 0.11719715 0.59500003 -0.63807529 -0.065035298 -0.76722246 0.042949382
-0.16827001 0.11720219 0.59500003 -0.63652629 -0.062903628 -0.76868552 0.041998435
-0.16609906 0.11681332 0.59300005 -0.63031083 -0.059511233 -0.77405846 0.039800487
-0.16366152 0.1162275 0.59000003 -0.62431437 -0.060941491 -0.77879244 0.050583228
-0.16151483 0.1158387 0.588 -0.61644399 -0.057102904 -0.78532541 0.052520357
-0.15910698 0.11525294 0.58500004 -0.59734035 -0.045172665 -0.80071467 0.053782154
-0.15698458 0.11486419 0.583 -0.5869168 -0.030483782 -0.80907321 0.056888133
-0.15487297 0.1144755 0.58100003 -0.58135694 -0.019072136 -0.81342506 0.052417763
-0.15277208 0.1140868 0.57900006 -0.58412474 -0.0071414448 -0.81163245 0.046794828
-0.15068197 0.11369812 0.57700002 -0.58192503 0.0013567059 -0.81324124 0.035429541
-0.14886107 0.11350653 0.57600003 -0.59326369 0.0071890736 -0.80497605 0.01518282
-0.14678974 0.11311788 0.574 -0.59401512 0.015189274 -0.80431044 0.0088407928
-0.14472915 0.11272925 0.57200003 -0.59675699 0.01987198 -0.80217588 0.00215869
-0.14317991 0.11273479 0.57200003 -0.59372014 0.020879054 -0.80440062 0.0023822892
-0.14138299 0.1125433 0.57100004 -0.5885964 0.022156151 -0.80812335 0.0025377905
-0.13959137 0.1123518 0.57000005 -0.58268052 0.02597758 -0.81228596 0.0029883317
-0.13780503 0.1121603 0.56900001 -0.57380706 0.027017452 -0.81854469 0.0033965684
-0.13602401 0.11196885 0.56800002 -0.56637633 0.03028696 -0.8235901 0.0038288017
-0.13472183 0.11217166 0.56900001 -0.56318277 0.03054828 -0.82576752 0.003839615
-0.13294595 0.11198021 0.56800002 -0.5553472 0.033095073 -0.83095986 0.0041174307
-0.13094406 0.11159162 0.56600004 -0.54508215 0.038192868 -0.83751225 0.0042033992
-0.12872419 0.11100583 0.56300002 -0.53412694 0.04542977 -0.84418273 0.0045795222
-0.12652045 0.11042 0.56 -0.52245545 0.052766126 -0.85103238 0.004195339
-0.12455606 0.11003131 0.55800003 -0.51103252 0.05833745 -0.85757947 0.0042432416
-0.12282288 0.10983977 0.55700004 -0.49960852 0.062909618 -0.86396396 0.0044192695
-0.12174836 0.11023987 0.55900002 -0.49846673 0.062650867 -0.86464196 0.0045852386
-0.1198025 0.10985113 0.55700004 -0.4857254 0.069386154 -0.87135321 0.0056423685
-0.11786732 0.10946234 0.55500001 -0.46892914 0.076143302 -0.87994754 0.0060172244
-0.11615251 0.10927077 0.55400002 -0.44989425 0.080563381 -0.88944066 0.0055972044
-0.11485684 0.10947365 0.55500001 -0.44400489 0.081024617 -0.89235348 0.0057898378
-0.1129429 0.10908478 0.55300003 -0.41769075 0.086994171 -0.90441495 0.0055847103
-0.11103963 0.10869586 0.551 -0.39512569 0.09296412 -0.91391104 0.0047359285
-0.10934586 0.10850416 0.55000001 -0.37862048 0.097034462 -0.92045146 0.0043181404
-0.10785344 0.10850972 0.55000001 -0.36529768 0.10028214 -0.92547345 0.0042003123
-0.10636087 0.10851528 0.55000001 -0.353394 0.10329471 -0.9297542 0.0046765534
-0.10467744 0.10832349 0.54900002 -0.33694294 0.10838824 -0.93526542 0.0045726979
-0.10299928 0.10813167 0.54800004 -0.31746259 0.11411516 -0.94137943 0.0051091895
-0.1013264 0.10793982 0.54700005 -0.29819474 0.1201198 -0.94691664 0.0054745143
-0.10002378 0.10814258 0.54800004 -0.28517798 0.12309483 -0.95053732 0.0059074895
-0.098535769 0.108148 0.54800004 -0.26900786 0.12676463 -0.95475942 0.0055719484
-0.09704756 0.10815337 0.54800004 -0.25294685 0.13206367 -0.95842427 0.0061892155
-0.095384829 0.10796137 0.54700005 -0.23302861 0.13575813 -0.96294725 0.0071216477
-0.093727313 0.10776929 0.546 -0.20779794 0.13969643 -0.96814513 0.006901199
-0.091737188 0.10718238 0.54300004 -0.17974599 0.14376144 -0.97315156 0.0070313741
-0.090095647 0.10699018 0.54200006 -0.15779892 0.14760287 -0.97637737 0.0083947973
-0.088622868 0.10699533 0.54200006 -0.13890623 0.15060093 -0.97878718 0.0089717861
-0.0874715 0.10739526 0.54400003 -0.12288024 0.15329605 -0.98051041 0.0090927919
-0.086151011 0.10759777 0.54500002 -0.1034996 0.15645999 -0.98224646 0.0098586455
-0.084669538 0.1076028 0.54500002 -0.08050096 0.15889743 -0.98400772 0.0095278937
-0.0831879 0.10760779 0.54500002 -0.060002618 0.15947926 -0.98537606 0.0089369202
-0.081556171 0.10741528 0.54400003 -0.034747932 0.15990299 -0.98652101 0.0071265702
-0.079929702 0.10722271 0.54300004 -0.0088341786 0.1606946 -0.9869647 0.0066154106
-0.078452967 0.10722752 0.54300004 0.011946253 0.1621315 -0.98669678 0.0064967847
-0.077117831 0.10742976 0.54400003 0.031037055 0.16615374 -0.98561126 0.0078643113
-0.075638026 0.10743447 0.54400003 0.05472178 0.16797936 -0.98427045 0.0099457046
-0.074158072 0.10743912 0.54400003 0.080666907 0.16982558 -0.98216707 0.010636891
-0.072677933 0.10744371 0.54400003 0.10514661 0.17061105 -0.97971219 0.010806018
-0.071328506 0.10764574 0.54500002 0.12920512 0.17087388 -0.97678459 0.010416989
-0.069845311 0.10765021 0.54500002 0.15172842 0.16935156 -0.9738062 0.0095881084
-0.068487391 0.10785213 0.546 0.17505531 0.16818762 -0.97008693 0.0089127878
-0.067001149 0.10785647 0.546 0.19651735 0.16702232 -0.96617001 0.0077355206
-0.065394744 0.10766319 0.54500002 0.21607116 0.16596071 -0.96216959 0.0080632558
-0.064028174 0.10786495 0.546 0.23794226 0.16594568 -0.95699817 0.0086193988
-0.062426902 0.1076715 0.54500002 0.25641716 0.16390195 -0.95256835 0.0083401343
-0.061054561 0.10787311 0.546 0.27806661 0.16226566 -0.94675708 0.0073541524
-0.059676629 0.10807467 0.54700005 0.29708695 0.16094688 -0.94118834 0.0073642819
-0.058293082 0.10827614 0.54800004 0.31287241 0.15882595 -0.93642151 0.007459803
-0.056800298 0.10827997 0.54800004 0.33031091 0.15691535 -0.9307375 0.0081233867
-0.055408288 0.10848131 0.54900002 0.34719825 0.15626994 -0.92467993 0.0079684118
-0.053912487 0.10848498 0.54900002 0.3626318 0.1517501 -0.91949445 0.0068174703
-0.052512016 0.10868617 0.55000001 0.38118306 0.15031298 -0.91219813 0.0051702047
-0.051013209 0.10868969 0.55000001 0.39656231 0.14874877 -0.90587646 0.0052198484
-0.049604286 0.10889071 0.551 0.4115698 0.14881591 -0.89914632 0.0052714786
-0.048102479 0.10889405 0.551 0.42222494 0.14830446 -0.89427727 0.0049458952
-0.046600543 0.1088973 0.551 0.43414286 0.14714234 -0.88874584 0.0051484611
-0.045098484 0.10890045 0.551 0.44474 0.14723924 -0.88347441 0.006523476
-0.043754544 0.10929883 0.55300003 0.46032718 0.15090643 -0.87482923 0.0067523513
-0.042323172 0.10949944 0.55400002 0.46971714 0.15079629 -0.86984265 0.0065203975
-0.041033577 0.11009531 0.55700004 0.48110685 0.15445623 -0.86294818 0.0057760221
-0.039514679 0.11009812 0.55700004 0.48942178 0.15080686 -0.85890836 0.0063042124
-0.03806388 0.11029849 0.55800003 0.49865848 0.15094033 -0.85355532 0.0066908482
-0.036542032 0.11030112 0.55800003 0.50650674 0.14896117 -0.84927118 0.0064208051
-0.035082843 0.1105013 0.55900002 0.51393795 0.15040846 -0.84453839 0.0056269425
-0.033498038 0.11030606 0.55800003 0.5182699 0.14523073 -0.84279561 0.0057412279
-0.032033194 0.11050606 0.55900002 0.52627194 0.14673977 -0.83755916 0.0063284198
-0.030617382 0.11090367 0.56100005 0.53614372 0.15254793 -0.83022827 0.0064888806
-0.029242415 0.11149886 0.56400001 0.54715347 0.16318333 -0.82097155 0.0065473029
-0.027703635 0.11150088 0.56400001 0.5512535 0.16209303 -0.81844091 0.0069138743
-0.026164774 0.1115028 0.56400001 0.557019 0.16144775 -0.81465596 0.0069475835
-0.024669498 0.11170232 0.565 0.56401825 0.16299334 -0.80951625 0.0073341681
-0.023168696 0.11190177 0.56600004 0.57036293 0.16584049 -0.80447686 0.0065378677
-0.02170057 0.11229878 0.56800002 0.5781554 0.17125925 -0.79775095 0.0062375963
-0.020150511 0.11230028 0.56800002 0.58311743 0.16936858 -0.79453659 0.0057612588
-0.018665889 0.11269712 0.57000005 0.58998799 0.17421184 -0.7883935 0.005485089
-0.017170293 0.11309383 0.57200003 0.59783483 0.17910251 -0.78135514 0.0051009879
-0.01566373 0.11349045 0.574 0.605995 0.18577543 -0.77347112 0.0053577139
-0.014121644 0.11368925 0.57500005 0.61215132 0.18865792 -0.76790559 0.0053487583
-0.012595886 0.11408566 0.57700002 0.62373763 0.19668283 -0.75648344 0.0058917953
-0.011001873 0.1138888 0.57600003 0.62662518 0.19169958 -0.75537544 0.0060487124
-0.0094623966 0.11428499 0.57800001 0.63641548 0.19698904 -0.74576855 0.0058341036
-0.0078983335 0.11448335 0.57900006 0.64308113 0.19756986 -0.73987359 0.0055214935
-0.0063506104 0.11507703 0.58200002 0.66018403 0.20344704 -0.7230258 0.0055796024
-0.0047701262 0.11527517 0.583 0.66743445 0.20344691 -0.71633834 0.0054509412
-0.003189621 0.11567092 0.58500004 0.68503159 0.20230533 -0.69986016 0.0061659473
-0.0015954642 0.11586881 0.58600003 0.69728148 0.19987983 -0.68836516 0.0061915359
4.1635521e-06 0.11626433 0.588 0.71585816 0.20148996 -0.66854244 0.0072844839
0.0016119734 0.116462 0.58900005 0.72869658 0.20290418 -0.65408808 0.0083134333
0.0032416377 0.11725274 0.59300005 0.75471926 0.20462552 -0.62331957 0.0099071115
0.0048767366 0.11764789 0.59500003 0.78301144 0.19860764 -0.5894472 0.011443233
0.0065227398 0.11804294 0.597 0.82188284 0.18702626 -0.53807974 0.013548776
0.0081932982 0.11863559 0.60000002 0.84047514 0.18216929 -0.51030976 0.013653737
0.0099129798 0.11962355 0.60500002 0.89491278 0.15411799 -0.41878241 0.01353682
0.011736385 0.12140229 0.61400002 0.94321567 0.10653166 -0.31463489 0.006909091
0.01363073 0.1233786 0.62400001 0.96129501 0.071488105 -0.26608551 0.0019285799
0.015579623 0.12535475 0.634 0.96502578 0.058205925 -0.25561169 0.00058206066
0.017473849 0.12653987 0.64000005 0.96206367 0.060174745 -0.26610616 0.00040970059
0.019430803 0.12792256 0.64700001 0.95751166 0.067171574 -0.28046268 0.00032911607
0.021393148 0.12910739 0.65300006 0.94606876 0.081253812 -0.31361091 0.0017154461
0.023459161 0.13068748 0.66100001 0.91820747 0.098497853 -0.38365752 0.0054822909
0.025454111 0.13167426 0.66600001 0.8860566 0.10874528 -0.45064178 0.0090208659
0.02755817 0.13305631 0.67300004 0.82827085 0.12954225 -0.54514784 0.012420238
0.029569322 0.13384509 0.67700005 0.77891135 0.14352815 -0.61048883 0.0097958408
0.031602211 0.13463369 0.68100005 0.74704903 0.14996992 -0.64763176 0.0087566124
0.033558574 0.13502677 0.68300003 0.72374833 0.15546688 -0.67232311 0.0071986686
0.035473887 0.135222 0.68400002 0.6960296 0.16544484 -0.6986922 0.0048450199
0.037394557 0.13541712 0.68500006 0.68771154 0.16715759 -0.706478 0.0046640751
0.039320573 0.13561207 0.68600005 0.6810084 0.17135771 -0.71194392 0.0049558789
0.041311976 0.13600458 0.68800002 0.66690958 0.17762405 -0.72365826 0.0043150238
0.043314174 0.13639696 0.69000006 0.65499789 0.18333282 -0.73305309 0.0035978707
0.045261655 0.13659151 0.69100004 0.6495713 0.18581253 -0.73724544 0.0035513723
0.047214463 0.13678594 0.69200003 0.64065796 0.18974967 -0.74401104 0.0026974319
0.049172591 0.13698022 0.69300002 0.63502049 0.1920498 -0.7482419 0.0026017227
0.051357087 0.13776736 0.69700003 0.62034225 0.19422926 -0.75990164 0.0022963902
0.053410437 0.13815904 0.69900006 0.61554527 0.19668403 -0.76316416 0.0023026217
0.055553667 0.1387482 0.70200002 0.61710763 0.20156828 -0.76062375 0.0032702193
0.057467531 0.13874431 0.70200002 0.6183874 0.20398366 -0.75893855 0.0038666315
0.059550408 0.13913555 0.70400006 0.62219352 0.20607679 -0.75525337 0.0042226864
0.061556701 0.13932905 0.70500004 0.62546206 0.20732653 -0.75220537 0.0050074719
0.06374836 0.13991763 0.708 0.62911999 0.20729284 -0.74915802 0.0056740558
0.065863445 0.14030847 0.71000004 0.63197708 0.20981036 -0.74604607 0.0053208163
0.068084754 0.1408968 0.71300006 0.63444358 0.21166417 -0.7434243 0.0062198997
0.070125781 0.14108972 0.71400005 0.63119811 0.21398331 -0.74552006 0.0070542763
0.072273023 0.14148016 0.71600002 0.63314235 0.21128264 -0.74464118 0.0079503683
0.074223638 0.14147525 0.71600002 0.63065457 0.21221894 -0.74648374 0.0089212898
0.07511019 0.13949443 0.70600003 0.62847477 0.21144374 -0.74853921 0.0071961652
-0.18650433 0.10248689 0.528 0.92167783 -0.18236712 0.34242123 0.095224448
-0.18155463 0.10132585 0.52200001 0.92838305 -0.1465131 0.34152436 0.088698491
-0.1856613 0.10443369 0.53800005 0.97638816 -0.13993512 0.16457321 0.10056236
-0.18214895 0.10327119 0.53200001 0.97724396 -0.12514666 0.17126784 0.10130089
-0.18818024 0.10754423 0.55400002 0.99424434 -0.091762401 0.055297896 0.11779311
-0.18229865 0.10502312 0.54100001 0.98437148 -0.11194669 0.13594376 0.094769724
-0.18317284 0.1063847 0.54800004 0.9909156 -0.097997434 0.092102274 0.10044485
-0.17903599 0.10483441 0.54000002 0.98607272 -0.10963907 0.12505965 0.093596041
-0.1795464 0.10600217 0.546 0.98888171 -0.09895613 0.11099882 0.094171792
-0.18002446 0.10717013 0.55200005 0.99465036 -0.097727403 0.033466101 0.10371835
-0.1775593 0.10659087 0.54900002 0.99380225 -0.093170218 0.060632288 0.096526802
-0.17575192 0.10640003 0.54800004 0.99306685 -0.084858328 0.081346273 0.096199937
-0.17426811 0.10640347 0.54800004 0.99325919 -0.090267055 0.072718054 0.099211194
-0.17278436 0.106407 0.54800004 0.99495751 -0.081776783 0.058069758 0.099083148
-0.17005029 0.10563393 0.54400003 0.99650615 -0.06814526 0.048286993 0.094948269
-0.17260604 0.1081621 0.55700004 0.96145785 -0.05880728 -0.26858974 0.13377483
-0.18215655 0.11515702 0.59300005 -0.75457567 -0.074111603 -0.65201455 0.1134286
-0.18420486 0.1174917 0.60500002 -0.62540245 -0.075119868 -0.77667803 0.02048978
-0.18317066 0.11788461 0.60700005 -0.62634826 -0.070850395 -0.776317 0.018846983
-0.18092939 0.11750078 0.60500002 -0.62417036 -0.071285665 -0.77802938 0.018232977
-0.17869899 0.11711702 0.60300004 -0.63282692 -0.075454272 -0.77060801 0.023643369
-0.17647944 0.11673333 0.60100001 -0.64658874 -0.06834916 -0.75977063 0.029102659
-0.17397977 0.11615545 0.59800005 -0.6464988 -0.071915753 -0.75951785 0.036425449
-0.17149638 0.11557763 0.59500003 -0.6431669 -0.067639902 -0.76273268 0.042457022
-0.16960022 0.11538834 0.59400004 -0.63904375 -0.065349132 -0.76638931 0.04011561
-0.16799229 0.11539338 0.59400004 -0.63719922 -0.063062094 -0.76811469 0.03930888
-0.16610423 0.11520423 0.59300005 -0.63332695 -0.051523909 -0.77216727 0.032743867
-0.1639441 0.11482085 0.59100002 -0.63047403 -0.046153691 -0.77483696 0.034938414
-0.16124538 0.11404891 0.58700001 -0.62011552 -0.05203373 -0.78278303 0.05364557
-0.15911227 0.1136656 0.58500004 -0.6051721 -0.036365803 -0.79526365 0.050426185
-0.15698992 0.11328229 0.583 -0.59297669 -0.022076009 -0.80491686 0.052870654
-0.15487833 0.11289901 0.58100003 -0.58625114 -0.008497972 -0.81008476 0.050160453
-0.15277751 0.11251576 0.57900006 -0.58444619 0.0033272018 -0.81142569 0.050151575
-0.15094858 0.11232685 0.57800001 -0.59214437 0.0033050291 -0.80582505 0.024559068
-0.14912498 0.11213798 0.57700002 -0.59569263 0.0090223374 -0.8031618 0.015404793
-0.14705099 0.11175478 0.57500005 -0.60134119 0.019518463 -0.79875386 0.004909073
-0.14524071 0.11156594 0.574 -0.60105115 0.021820404 -0.7989127 0.0023551597
-0.1431855 0.11118277 0.57200003 -0.59385169 0.02338835 -0.80423445 0.0022577897
-0.14163621 0.11118837 0.57200003 -0.59174824 0.024309289 -0.80575621 0.0023231877
-0.13959698 0.11080521 0.57000005 -0.58448535 0.0270859 -0.81095201 0.002816357
-0.13805288 0.11081084 0.57000005 -0.57834107 0.029282477 -0.81526941 0.0029390682
-0.13626915 0.11062207 0.56900001 -0.57196271 0.032414027 -0.81963903 0.0037330559
-0.13472751 0.11062774 0.56900001 -0.56561583 0.035222746 -0.82391632 0.0038779657
-0.13271759 0.11024459 0.56700003 -0.55450219 0.04098361 -0.83117253 0.0038466149
-0.13094977 0.11005586 0.56600004 -0.54635125 0.044771712 -0.83635867 0.003994463
-0.12918717 0.10986709 0.565 -0.53957999 0.047646578 -0.84058505 0.0042250468
-0.12697801 0.10928941 0.56200004 -0.52932727 0.055731431 -0.84658527 0.0041924655
-0.12478496 0.10871168 0.55900002 -0.51504439 0.062885776 -0.85485357 0.0038254682
-0.12326958 0.10871736 0.55900002 -0.50886506 0.064387143 -0.85843503 0.0043362556
-0.12175404 0.10872304 0.55900002 -0.50075138 0.066796705 -0.86300999 0.0044080769
-0.11980817 0.10833971 0.55700004 -0.48648208 0.07169129 -0.87074423 0.0048000151
-0.11766058 0.10776183 0.55400002 -0.46524978 0.078504845 -0.8816914 0.0049988125
-0.11615814 0.10776746 0.55400002 -0.4528231 0.080448523 -0.88796359 0.0051848921
-0.11486249 0.10796763 0.55500001 -0.44579986 0.082134172 -0.89135659 0.0054350756
-0.11315276 0.10777872 0.55400002 -0.42804137 0.086227037 -0.89963633 0.0050334577
-0.11104521 0.10720066 0.551 -0.39851266 0.094225816 -0.91230977 0.0045985188
-0.10935143 0.10701166 0.55000001 -0.38139465 0.098614015 -0.9191373 0.0041623302
-0.1080551 0.10721178 0.551 -0.37222448 0.10060656 -0.92267394 0.0037412059
-0.1063664 0.10702274 0.55000001 -0.35683453 0.10560548 -0.9281792 0.0041940655
-0.10487361 0.10702825 0.55000001 -0.34488136 0.1096295 -0.93222219 0.0054385327
-0.10300475 0.10664453 0.54800004 -0.32212797 0.11522232 -0.93965816 0.0062391302
-0.10151707 0.10664999 0.54800004 -0.30630264 0.1186055 -0.94451648 0.0057507283
-0.10002919 0.1066554 0.54800004 -0.28854409 0.12310664 -0.94951934 0.0053530098
-0.098541155 0.10666081 0.54800004 -0.27284399 0.1258266 -0.95379442 0.0047053844
-0.097052924 0.10666617 0.54800004 -0.25511158 0.1311806 -0.95797169 0.005683539
-0.095390134 0.10647684 0.54700005 -0.23719817 0.13483703 -0.96205825 0.0067173657
-0.093732588 0.10628746 0.546 -0.21197374 0.13751347 -0.96755219 0.0067799501
-0.091911361 0.10590336 0.54400003 -0.18612657 0.14075775 -0.97239095 0.0069539635
-0.090267032 0.10571386 0.54300004 -0.16225173 0.14435561 -0.97613317 0.0080384705
-0.088791512 0.105719 0.54300004 -0.14353026 0.14874873 -0.97840321 0.0085414723
-0.08731579 0.10572409 0.54300004 -0.12202833 0.15151465 -0.98089361 0.0086189201
-0.085997976 0.10592385 0.54400003 -0.10419237 0.15372634 -0.9826048 0.009335896
-0.084519178 0.10592885 0.54400003 -0.079086527 0.15578887 -0.98461926 0.0095017487
-0.083040208 0.10593382 0.54400003 -0.058819648 0.1575366 -0.98575985 0.009419689
-0.081411138 0.105744 0.54300004 -0.032934066 0.1567328 -0.98709184 0.0084488709
-0.079934537 0.10574883 0.54300004 -0.010661323 0.15767129 -0.98743409 0.0070970594
-0.078313261 0.10555888 0.54200006 0.012023671 0.15765934 -0.98742038 0.0064435154
-0.077122554 0.10595313 0.54400003 0.030437673 0.16074972 -0.98652571 0.0080642626
-0.075503647 0.10576306 0.54300004 0.055169918 0.16126904 -0.98536724 0.0095783276
-0.074162677 0.10596246 0.54400003 0.080374911 0.16377705 -0.98321766 0.011255857
-0.072415262 0.10557744 0.54200006 0.10314646 0.16281886 -0.98124963 0.011217004
-0.07107123 0.10577673 0.54300004 0.12830828 0.1641221 -0.97805977 0.010803693
-0.069593407 0.10578116 0.54300004 0.15337154 0.16375525 -0.97450572 0.010423517
-0.068240874 0.10598034 0.54400003 0.17545511 0.16326666 -0.970855 0.0087671196
-0.066882722 0.10617947 0.54500002 0.19697137 0.16336134 -0.9667033 0.0084086871
-0.065398969 0.1061837 0.54500002 0.21760657 0.16167203 -0.96255368 0.008284173
-0.063915044 0.10618787 0.54500002 0.2380653 0.16125076 -0.95776987 0.0087692197
-0.062545523 0.10638683 0.546 0.25979429 0.15936798 -0.95242256 0.0084304772
-0.061282218 0.10678056 0.54800004 0.2827459 0.15731587 -0.94620639 0.0076117613
-0.059789658 0.10678453 0.54800004 0.300787 0.15510125 -0.94099462 0.0077695097
-0.058190566 0.10659356 0.54700005 0.31437135 0.15220088 -0.93701953 0.0078201704
-0.05670042 0.10659736 0.54700005 0.33050305 0.14994517 -0.93181771 0.0078921625
-0.055311065 0.10679595 0.54800004 0.34788936 0.14803156 -0.92577517 0.0085501149
-0.054014314 0.10718936 0.55000001 0.37049317 0.1457071 -0.91733539 0.0075484551
-0.052515559 0.10719295 0.55000001 0.38504225 0.14140387 -0.91200191 0.0063457126
-0.051202174 0.10758623 0.55200005 0.40415582 0.14311044 -0.90342546 0.0046739061
-0.04969769 0.10758965 0.55200005 0.41494039 0.14041258 -0.89894873 0.004550593
-0.048280381 0.10778789 0.55300003 0.42900673 0.14302005 -0.89190727 0.0045431294
-0.046688322 0.10759621 0.55200005 0.43818444 0.14024566 -0.88787693 0.0055479049
-0.045265295 0.10779428 0.55300003 0.45272321 0.14105409 -0.88042349 0.0058756317
-0.043915812 0.10818719 0.55500001 0.46554315 0.1447048 -0.87311518 0.0069490098
-0.042478912 0.10838512 0.55600005 0.47511095 0.14329252 -0.86818022 0.0063654557
-0.041110102 0.10877788 0.55800003 0.48614851 0.14470299 -0.86181247 0.005811736
-0.039588381 0.10878069 0.55800003 0.49304929 0.14152537 -0.85841298 0.0061449502
-0.038134761 0.10897835 0.55900002 0.50150436 0.14064348 -0.85364681 0.0057215891
-0.036675576 0.1091759 0.56 0.50972867 0.14243041 -0.84846348 0.0057354658
-0.035148077 0.10917842 0.56 0.5170911 0.14061122 -0.84430164 0.0057692253
-0.033440363 0.10859594 0.55700004 0.51677442 0.12999071 -0.8461954 0.0055289837
-0.031920843 0.10859825 0.55700004 0.52445823 0.12844242 -0.84169245 0.0062490096
-0.030564969 0.10918535 0.56 0.53462094 0.13505164 -0.83423108 0.0060433242
-0.029244488 0.10996737 0.56400001 0.54758811 0.1474459 -0.82365459 0.0062855803
-0.027754731 0.11016437 0.565 0.55452222 0.14901735 -0.8187179 0.0068650655
-0.026213033 0.11016628 0.565 0.5594964 0.14850014 -0.81542104 0.0067929504
-0.02471493 0.1103631 0.56600004 0.56624222 0.1509307 -0.81030214 0.0069274986
-0.023211291 0.1105598 0.56700003 0.57320774 0.15419744 -0.80477083 0.0065755993
-0.021740334 0.11095138 0.56900001 0.58049309 0.16024753 -0.7983411 0.0059730965
-0.020187438 0.11095288 0.56900001 0.58549482 0.15790556 -0.79514879 0.0054777116
-0.018667232 0.11114927 0.57000005 0.59076136 0.15929455 -0.79096544 0.0053385547
-0.017141512 0.11134557 0.57100004 0.59735292 0.16086826 -0.78567863 0.0050708759
-0.015637569 0.11173673 0.57300001 0.60498744 0.1669679 -0.77853185 0.0052594021
-0.014098102 0.11193281 0.574 0.61147767 0.16921505 -0.77295619 0.0056637335
-0.012574966 0.11232379 0.57600003 0.62174374 0.17587627 -0.76321834 0.005474071
-0.011002669 0.11232465 0.57600003 0.62734795 0.176946 -0.7583698 0.0057225293
-0.0094630811 0.11271539 0.57800001 0.63744026 0.18060231 -0.74903452 0.0057091592
-0.0079125483 0.11310604 0.58000004 0.6487481 0.18557113 -0.73803061 0.0056943991
-0.0063510705 0.11349657 0.58200002 0.66209543 0.18954958 -0.72505206 0.0057445792
-0.0047704722 0.11369199 0.583 0.67102021 0.18868223 -0.71702921 0.0057266294
-0.0031898522 0.11408231 0.58500004 0.68793887 0.18833356 -0.70090693 0.0062711216
-0.00159558 0.11427749 0.58600003 0.7022922 0.18703127 -0.68688059 0.0070697665
4.1638541e-06 0.11466756 0.588 0.7217049 0.18671495 -0.66654301 0.0083002131
0.0016120905 0.11486254 0.58900005 0.73476833 0.18623909 -0.65225041 0.0090507176
0.0032364056 0.11544739 0.59200001 0.75769818 0.18874414 -0.62471527 0.010310057
0.0048770909 0.11603214 0.59500003 0.79365265 0.18285078 -0.58024216 0.012427729
0.0065232129 0.11642174 0.597 0.82626325 0.17627582 -0.5349915 0.01389385
0.0081802346 0.11681123 0.59900004 0.84526455 0.17055139 -0.50639898 0.014477048
0.0099136969 0.11798064 0.60500002 0.8992694 0.14407019 -0.41298708 0.013298409
0.011718118 0.11953992 0.61300004 0.94303989 0.10492952 -0.3156985 0.0071185329
0.013653561 0.1218791 0.625 0.96351737 0.065403357 -0.25953162 0.0014357602
0.015580747 0.12363309 0.634 0.96533018 0.058933698 -0.25429201 0.00064946333
0.01747511 0.12480194 0.64000005 0.96143574 0.059766695 -0.26845714 0.00046118253
0.019402169 0.12597063 0.64600003 0.95761949 0.066623151 -0.28022531 0.00030589654
0.021427453 0.12752916 0.65400004 0.94095159 0.085513048 -0.32756314 0.0022580812
0.023496339 0.12908754 0.66200006 0.91180068 0.10246618 -0.39764324 0.0063974904
0.02553238 0.13025574 0.66800004 0.87298328 0.11654519 -0.47362146 0.010287588
0.027560141 0.1312288 0.67300004 0.82700485 0.12799129 -0.54743147 0.012279955
0.029527754 0.13181175 0.67600006 0.78839737 0.14149714 -0.59867203 0.010544382
0.031558059 0.1325895 0.68000001 0.75023973 0.14844479 -0.64428616 0.0089449873
0.033511825 0.13297717 0.68200004 0.72627509 0.15453801 -0.66980785 0.007618166
0.035476409 0.13336468 0.68400002 0.69311136 0.16404404 -0.7019161 0.0050187535
0.037342608 0.1333621 0.68400002 0.68634981 0.16672184 -0.70790374 0.0049426979
0.039266031 0.13355438 0.68500006 0.68035388 0.17205769 -0.71240079 0.0048201494
0.041194782 0.1337465 0.68600005 0.66864324 0.17382199 -0.72298145 0.0041965512
0.043254435 0.13432842 0.68900001 0.65190971 0.18282819 -0.73592639 0.0030796642
0.04519932 0.13452029 0.69000006 0.6488179 0.18584566 -0.7379002 0.0033103465
0.047149532 0.13471204 0.69100004 0.63948601 0.1908085 -0.74474812 0.0032753579
0.049105059 0.13490364 0.69200003 0.63372803 0.19404405 -0.74882287 0.0032467996
0.051213279 0.13548499 0.69500005 0.6214506 0.19922426 -0.75769973 0.0025260844
0.053337716 0.13606618 0.69800001 0.61529654 0.19977017 -0.76256281 0.0022454695
0.05539922 0.1364523 0.70000005 0.61438608 0.20004325 -0.76322502 0.0028967301
0.057389606 0.13664337 0.70100003 0.61586952 0.20078808 -0.76183254 0.0035063603
0.059469882 0.1370292 0.70300001 0.61925501 0.20397902 -0.75823194 0.0038493534
0.061648216 0.13760982 0.70600003 0.62605441 0.20754869 -0.75165111 0.0051790727
0.063752696 0.13799539 0.708 0.62745446 0.20987152 -0.74983656 0.0058950032
0.065867908 0.13838083 0.71000004 0.62966198 0.21415056 -0.74676996 0.0058279522
0.067993835 0.13876611 0.71200001 0.63088202 0.21342137 -0.74594855 0.0063483347
0.07013049 0.13915126 0.71400005 0.62911397 0.21383913 -0.74732083 0.0069754082
0.072176903 0.1393414 0.71500003 0.62717891 0.21549265 -0.7484715 0.0075619104
0.074332245 0.13972628 0.71700001 0.63042444 0.21580969 -0.74564821 0.0086848447
0.075647131 0.1385521 0.71100003 0.62519515 0.21538796 -0.75015938 0.0076811286
-0.18332697 0.099330656 0.51900005 -0.89777786 0.14612144 -0.41550386 0.088153467
-0.18717776 0.10220329 0.53400004 0.96616328 -0.13991021 0.21668775 0.099806927
-0.19094747 0.1050762 0.54900002 0.98618364 -0.13062315 0.10187892 0.11997833
-0.18980467 0.10526976 0.55000001 0.98735297 -0.13327442 0.085861251 0.11752446
-0.18454796 0.10316664 0.53900003 0.97781318 -0.1322542 0.16245067 0.0968583
-0.18512563 0.10431751 0.54500002 0.98282439 -0.13211228 0.128851 0.099672087
-0.17926852 0.10183171 0.53200001 0.98471928 -0.11630207 0.12962233 0.094224073
-0.17415053 0.099728771 0.52100003 0.99037218 -0.073320299 0.11741823 0.086428404
-0.17837575 0.10298568 0.53800005 0.98790205 -0.10407995 0.11496447 0.092465088
-0.18053596 0.10509433 0.54900002 0.99294466 -0.08890418 0.078466065 0.097828947
-0.18133219 0.1064375 0.55600005 0.9948132 -0.099905238 0.019121798 0.11148676
-0.17917971 0.10605789 0.55400002 0.99478829 -0.09578985 0.034936849 0.10401628
-0.17735893 0.10586983 0.55300003 0.99488956 -0.096669875 0.029147882 0.10205882
-0.17554368 0.10568189 0.55200005 0.99548405 -0.089953169 0.030328689 0.09921544
-0.17215735 0.10453673 0.546 0.9923805 -0.09724506 0.075658686 0.094226211
-0.16942883 0.10377455 0.54200006 0.99527442 -0.085428633 0.046161905 0.090044804
-0.17168024 0.10607596 0.55400002 0.99585181 -0.090379186 0.010519644 0.10668912
-0.18185359 0.11335614 0.59200001 -0.78680676 -0.046763141 -0.61542535 0.12708466
-0.18451378 0.11604127 0.60600001 -0.62530041 -0.065202892 -0.77765542 0.018504512
-0.18287341 0.11604578 0.60600001 -0.62674069 -0.063703395 -0.77661955 0.0177327
-0.18093404 0.11585891 0.60500002 -0.62615538 -0.064564109 -0.77702051 0.016718499
-0.17870374 0.11548062 0.60300004 -0.63385326 -0.0637789 -0.77081925 0.020301268
-0.1761906 0.11491085 0.60000002 -0.65227741 -0.064629287 -0.75521994 0.031494495
-0.17427559 0.11472417 0.59900004 -0.65136516 -0.065003261 -0.75597483 0.031249009
-0.17178954 0.11415452 0.59600002 -0.64702475 -0.062037501 -0.75994104 0.034949791
-0.16960523 0.11377642 0.59400004 -0.64168549 -0.064772129 -0.76422805 0.037301805
-0.16771455 0.11358994 0.59300005 -0.64066374 -0.053407852 -0.76596183 0.03316506
-0.16610937 0.11359506 0.59300005 -0.63624954 -0.049034879 -0.76992339 0.029103264
-0.16367191 0.11302554 0.59000003 -0.63417619 -0.040129676 -0.7721464 0.03493958
-0.16152532 0.11264763 0.588 -0.62552929 -0.035208285 -0.77940583 0.034599889
-0.15884559 0.11188658 0.58400005 -0.60696167 -0.023620909 -0.79438013 0.050512254
-0.15672597 0.1115087 0.58200002 -0.59547657 -0.011955602 -0.80328369 0.060161546
-0.15461713 0.11113085 0.58000004 -0.58759785 0.0026029632 -0.80914885 0.054001529
-0.15304679 0.11113624 0.58000004 -0.59385419 0.0029511887 -0.80456722 0.035208669
-0.15095402 0.11075844 0.57800001 -0.59395319 0.0060097268 -0.8044771 0.025282983
-0.14913048 0.11057228 0.57700002 -0.60254496 0.01752303 -0.79789257 0.011246835
-0.14731225 0.11038615 0.57600003 -0.60432655 0.020348195 -0.7964769 0.0051730033
-0.14524627 0.11000838 0.574 -0.60213614 0.025602655 -0.79798287 0.002303309
-0.14319105 0.10963064 0.57200003 -0.59454358 0.027693586 -0.80358636 0.0020166247
-0.14139418 0.10944455 0.57100004 -0.59036714 0.029228846 -0.80660546 0.0019102271
-0.13935767 0.10906678 0.56900001 -0.58126658 0.033096772 -0.8130399 0.002819597
-0.13781631 0.10907241 0.56900001 -0.57757509 0.034809537 -0.81559509 0.0031838822
-0.13603532 0.10888635 0.56800002 -0.57108611 0.038852982 -0.81997013 0.0033187272
-0.13402283 0.10850858 0.56600004 -0.55881709 0.047476273 -0.82793087 0.0036530513
-0.13202105 0.10813081 0.56400001 -0.54802924 0.053584743 -0.834741 0.0042075315
-0.1304927 0.10813648 0.56400001 -0.54309434 0.05571394 -0.83782125 0.0042852703
-0.12873557 0.10795041 0.56300002 -0.53816664 0.058159489 -0.84082943 0.004299704
-0.1269837 0.10776435 0.56200004 -0.53124541 0.06168332 -0.84496945 0.0041927602
-0.12501386 0.10738649 0.56 -0.51960278 0.067064323 -0.85177195 0.0039006369
-0.12327524 0.10720039 0.55900002 -0.51040977 0.068468653 -0.85720116 0.0044292407
-0.12154189 0.10701428 0.55800003 -0.49998546 0.072434455 -0.86299932 0.0045466828
-0.11959872 0.10663636 0.55600005 -0.48585856 0.077535905 -0.87059158 0.0046332181
-0.11745381 0.10606659 0.55300003 -0.46167222 0.081090093 -0.88333642 0.0045435531
-0.11616376 0.106264 0.55400002 -0.45562109 0.083444402 -0.88625419 0.0048225378
-0.11466115 0.10626963 0.55400002 -0.44365925 0.086076625 -0.89205229 0.0051045134
-0.11336263 0.10646706 0.55500001 -0.43662432 0.088347569 -0.89529544 0.0052267546
-0.11125233 0.10589715 0.55200005 -0.40645933 0.095294677 -0.90868562 0.0052525895
-0.10975464 0.10590271 0.55200005 -0.39454842 0.097784445 -0.91365737 0.0047336756
-0.10806064 0.10571639 0.551 -0.37572455 0.10410462 -0.92086548 0.0047512371
-0.10637191 0.10553004 0.55000001 -0.36193934 0.10919984 -0.92578357 0.0050411411
-0.10449774 0.10515177 0.54800004 -0.33945277 0.11453947 -0.93362337 0.0062478399
-0.10282223 0.10496533 0.54700005 -0.32262579 0.11777771 -0.93917042 0.0068886313
-0.10096671 0.10458694 0.54500002 -0.29555064 0.12248679 -0.94744223 0.0059444569
-0.099669494 0.10478422 0.546 -0.28504273 0.12247074 -0.9506585 0.0047770105
-0.098186858 0.10478958 0.546 -0.26851588 0.12592109 -0.95500946 0.004805001
-0.096704036 0.10479491 0.546 -0.25064179 0.13040468 -0.95925665 0.0055372259
-0.095221028 0.10480019 0.546 -0.23342726 0.13291636 -0.96324706 0.0065672286
-0.093566157 0.10461351 0.54500002 -0.21063907 0.13599564 -0.96805805 0.0060711876
-0.091916546 0.10442676 0.54400003 -0.18856168 0.13804699 -0.97231042 0.0063579986
-0.090272188 0.10423996 0.54300004 -0.16641188 0.14269775 -0.97567636 0.0072132046
-0.088796616 0.10424507 0.54300004 -0.1453052 0.14654461 -0.97847384 0.0079788482
-0.087320842 0.10425014 0.54300004 -0.12536915 0.14806499 -0.98099911 0.0084327972
-0.085844904 0.10425516 0.54300004 -0.10101426 0.15000245 -0.98351175 0.0085643334
-0.08436878 0.10426014 0.54300004 -0.077262014 0.15160342 -0.98541713 0.0089571048
-0.08304514 0.10445709 0.54400003 -0.061556008 0.15419891 -0.98612046 0.0095957387
-0.081266068 0.10407793 0.54200006 -0.030452695 0.15216909 -0.98788518 0.0071998718
-0.079792127 0.10408275 0.54200006 -0.010194832 0.15296294 -0.98817933 0.0071323705
-0.078173503 0.10389546 0.54100001 0.012372212 0.15480518 -0.98786759 0.0069454545
-0.076985493 0.10428427 0.54300004 0.031798732 0.15569913 -0.98729253 0.0079639703
-0.075369239 0.10409687 0.54200006 0.055067994 0.15690558 -0.98607713 0.0095889214
-0.074030928 0.10429352 0.54300004 0.080789857 0.15907599 -0.98395514 0.010337649
-0.072553389 0.10429807 0.54300004 0.10507432 0.15927306 -0.98162693 0.011478278
-0.071075685 0.10430253 0.54300004 0.12873583 0.15906489 -0.97883886 0.011439293
-0.069469623 0.10411485 0.54200006 0.15085982 0.15815106 -0.97582245 0.011389803
-0.068245202 0.10450339 0.54400003 0.17662998 0.15835512 -0.9714554 0.009939733
-0.066764258 0.10450768 0.54400003 0.19952407 0.15714788 -0.96720976 0.0088989548
-0.065403156 0.104704 0.54500002 0.21802549 0.15656997 -0.96330202 0.0085449191
-0.063919172 0.10470815 0.54500002 0.23976699 0.15542625 -0.9583081 0.0086455205
-0.062549576 0.10490435 0.546 0.26239267 0.15353423 -0.95266849 0.0082519595
-0.061286215 0.10529265 0.54800004 0.28435078 0.15299405 -0.94643408 0.0085425619
-0.059575349 0.1049123 0.546 0.30140448 0.14851385 -0.94185936 0.0081949811
-0.058088001 0.10491615 0.546 0.31795549 0.14548884 -0.93687636 0.0078076026
-0.05649684 0.10472776 0.54500002 0.33099246 0.1407384 -0.93307912 0.0074266591
-0.055213798 0.10511578 0.54700005 0.34954244 0.13823354 -0.92666692 0.007792843
-0.053821493 0.10531158 0.54800004 0.36889237 0.13578516 -0.91950035 0.0078034392
-0.052328099 0.10531512 0.54800004 0.38306871 0.13358639 -0.91400939 0.0072374428
-0.051020093 0.10570294 0.55000001 0.40123877 0.13162684 -0.9064666 0.0062376587
-0.049611013 0.10589852 0.551 0.41493571 0.13026921 -0.90047669 0.0055994745
-0.048283651 0.10628622 0.55300003 0.42996356 0.13327448 -0.8929553 0.0046091746
-0.046776086 0.10628945 0.55300003 0.44204849 0.13219512 -0.88719654 0.0053890278
-0.045432106 0.10667699 0.55500001 0.4579086 0.13578221 -0.87856865 0.0064533739
-0.043997962 0.10687227 0.55600005 0.46963561 0.13521054 -0.87244511 0.0068401964
-0.042481836 0.10687524 0.55600005 0.47766805 0.13263324 -0.86847085 0.0067438199
-0.040965591 0.10687811 0.55600005 0.48476672 0.1310402 -0.86477149 0.0061377743
-0.039378263 0.10668864 0.55500001 0.4913553 0.12552987 -0.86186558 0.005451364
-0.037932742 0.10688356 0.55600005 0.49925348 0.12501855 -0.85738921 0.0058437716
-0.036416154 0.10688614 0.55600005 0.50612336 0.12206095 -0.85378003 0.0062366002
-0.034899462 0.10688863 0.55600005 0.51153624 0.11856575 -0.85104221 0.0059344792
-0.033382665 0.106891 0.55600005 0.51719058 0.11367616 -0.84828752 0.0051620719
-0.031980399 0.10727779 0.55800003 0.52809703 0.11707362 -0.84107512 0.0058888909
-0.030621707 0.10785677 0.56100005 0.53927612 0.12216604 -0.83322072 0.0062832013
-0.029246558 0.10843565 0.56400001 0.54850096 0.12949522 -0.82606161 0.0064159408
-0.027756697 0.10862992 0.565 0.55565667 0.13256431 -0.82077551 0.0063768304
-0.026214892 0.10863181 0.565 0.55953217 0.12959516 -0.81861401 0.0062081702
-0.024716688 0.10882591 0.56600004 0.56640619 0.13249017 -0.81340665 0.0061337021
-0.023253884 0.10921215 0.56800002 0.57559609 0.14179152 -0.80534726 0.0066608195
-0.021741882 0.10940601 0.56900001 0.58190435 0.14315833 -0.80055797 0.0061832773
-0.020224363 0.1095998 0.57000005 0.58828825 0.14385881 -0.79575223 0.0053121452
-0.018701319 0.10979346 0.57100004 0.5941779 0.14601979 -0.7909683 0.0051029366
-0.017172759 0.10998703 0.57200003 0.59947854 0.14863181 -0.78646928 0.004836672
-0.015611399 0.10998821 0.57200003 0.60381687 0.14884089 -0.78310376 0.0048490842
-0.014074551 0.11018155 0.57300001 0.61078441 0.15189484 -0.77709097 0.0056483988
-0.012532203 0.11037479 0.574 0.6174826 0.15390484 -0.77138102 0.0054467898
-0.01100346 0.11076022 0.57600003 0.62840164 0.15972336 -0.76131451 0.0056256824
-0.0094637629 0.11114554 0.57800001 0.64038801 0.16541448 -0.75002748 0.0060240417
-0.0079131182 0.11153075 0.58000004 0.65211093 0.16985758 -0.73885036 0.0059845615
-0.0063297017 0.11153126 0.58000004 0.65810543 0.1664445 -0.73429799 0.0062588439
-0.0047544497 0.11172394 0.58100003 0.66849947 0.16777083 -0.72454226 0.006160405
-0.003179176 0.11210883 0.583 0.68266696 0.17223993 -0.71014035 0.005954138
-0.0015956952 0.1126859 0.58600003 0.70792943 0.17380041 -0.68456507 0.0079709375
4.1570725e-06 0.11287824 0.58700001 0.72072625 0.170454 -0.67193687 0.0086323172
0.0016094694 0.11307049 0.588 0.73454678 0.16793315 -0.65744913 0.0092360005
0.0032257047 0.11345491 0.59000003 0.75327235 0.16954522 -0.63548028 0.010041886
0.0048692445 0.11422379 0.59400004 0.78843105 0.17034696 -0.59106559 0.012211629
0.0065018279 0.11441568 0.59500003 0.8165397 0.16254693 -0.55393249 0.013933756
0.0081671672 0.11499204 0.59800005 0.84541494 0.15793274 -0.51022625 0.014501047
0.0098652486 0.11576057 0.60200006 0.88105857 0.14038469 -0.4516944 0.013828503
0.011699844 0.11768273 0.61200005 0.94266176 0.10190195 -0.31781244 0.0071903244
0.013654541 0.12018159 0.625 0.96437174 0.066441707 -0.25607154 0.0012863837
0.015581869 0.12191117 0.634 0.96558595 0.05917374 -0.25326338 0.00072642945
0.017476361 0.12306371 0.64000005 0.9610936 0.060785517 -0.26945198 0.0005393101
0.01940356 0.12421612 0.64600003 0.95691544 0.068165898 -0.28225213 0.0003324736
0.021461753 0.12594521 0.65500003 0.93702054 0.091139063 -0.33717391 0.0026525238
0.023498019 0.12728958 0.66200006 0.91010135 0.10588675 -0.40062892 0.0068777292
0.025572425 0.12863378 0.66900003 0.8634575 0.11618626 -0.49085832 0.010654498
0.027562104 0.129401 0.67300004 0.82459462 0.12840605 -0.55095875 0.012221084
0.029486168 0.12978351 0.67500001 0.79800993 0.13838618 -0.58654028 0.011508785
0.031513881 0.13055044 0.67900002 0.75279582 0.14796859 -0.64140761 0.0091879684
0.033514198 0.13112496 0.68200004 0.72257131 0.15627339 -0.6734013 0.007844992
0.035530783 0.13169931 0.68500006 0.68998039 0.16432422 -0.70492882 0.005437952
0.037345242 0.13150449 0.68400002 0.68397141 0.16598268 -0.71037525 0.0050872262
0.039211459 0.13150179 0.68400002 0.6792044 0.16807608 -0.71444517 0.004772075
0.041197672 0.13188349 0.68600005 0.66678309 0.17288971 -0.72492027 0.004002633
0.043257464 0.13245729 0.68900001 0.64972168 0.18059132 -0.73840946 0.0030912976
0.045202471 0.13264646 0.69000006 0.64519262 0.18444529 -0.74142194 0.002979245
0.047084574 0.13264325 0.69000006 0.63746256 0.18902835 -0.74693352 0.0031182119
0.049108464 0.13302438 0.69200003 0.63285154 0.195462 -0.74919528 0.0028783511
0.051216815 0.1335976 0.69500005 0.62150645 0.20084983 -0.75722462 0.0027039514
0.053264968 0.13397846 0.69700003 0.61428428 0.20161077 -0.76289439 0.0019933949
0.055244729 0.13416697 0.69800001 0.61284745 0.20179218 -0.76400131 0.0021007671
0.057311662 0.13454756 0.70000005 0.61347222 0.20217837 -0.76339746 0.0025626651
0.059473939 0.1351202 0.70300001 0.61585331 0.20554993 -0.7605747 0.0039183921
0.061652411 0.1356927 0.70600003 0.62212539 0.20816454 -0.75473672 0.0054754396
0.063847065 0.13626505 0.70900005 0.62582767 0.21282914 -0.75036216 0.005864542
0.065872341 0.13645288 0.71000004 0.62791455 0.21520415 -0.7479375 0.0063322219
0.067998387 0.13683274 0.71200001 0.6282748 0.21356711 -0.74810421 0.0061483374
0.069938712 0.13682814 0.71200001 0.62563825 0.21493234 -0.74992055 0.0063398024
0.071979798 0.13701563 0.71300006 0.62398636 0.21438546 -0.75145191 0.0071358848
0.074233487 0.13758726 0.71600002 0.62618756 0.21575318 -0.74922603 0.0084688356
0.075758517 0.1368137 0.71200001 0.62146783 0.21867786 -0.75230169 0.0079713566
-0.19648199 0.10414577 0.55200005 0.98691654 -0.13390009 0.089813605 0.13387962
-0.18933366 0.10112877 0.53600001 0.95512789 -0.15982026 0.24937543 0.10285959
-0.19033441 0.1024514 0.54300004 0.9719941 -0.15430048 0.17725381 0.1062129
-0.18990615 0.1030195 0.546 0.98082715 -0.13776478 0.13783661 0.10746539
-0.186701 0.10207828 0.54100001 0.97494441 -0.14231618 0.1709663 0.10029383
-0.18352315 0.10113718 0.53600001 0.98055422 -0.11763473 0.15708436 0.096937001
-0.17663607 0.098120548 0.52000004 0.97348428 -0.099540859 0.20596087 0.094133921
-0.17421651 0.097556956 0.51700002 0.97907197 -0.06682203 0.19223134 0.10142277
-0.17783014 0.10039012 0.53200001 0.98226678 -0.1235366 0.14103381 0.094234027
-0.18003644 0.10246874 0.54300004 0.98342866 -0.11997454 0.13591993 0.095312878
-0.17988135 0.1032266 0.54700005 0.99120802 -0.097159185 0.08981543 0.093825713
-0.17774785 0.10285231 0.54500002 0.98923492 -0.10227694 0.10466021 0.093410894
-0.17756589 0.10361046 0.54900002 0.99335343 -0.088489808 0.073610641 0.094852775
-0.17736238 0.10436878 0.55300003 0.99527335 -0.090223186 0.035928 0.099086307
-0.17522919 0.10399484 0.551 0.99522489 -0.090932243 0.035478733 0.097014382
-0.17247629 0.10324349 0.54700005 0.99208587 -0.10350174 0.071085587 0.093678027
-0.17068294 0.10305845 0.546 0.99377376 -0.091196239 0.064007737 0.095240034
-0.17292373 0.10532737 0.55800003 0.88158876 -0.069940321 -0.46680778 0.13517256
-0.18216507 0.11193817 0.59300005 -0.73727965 -0.057648413 -0.6731236 0.10406601
-0.18390928 0.11401901 0.60400003 -0.6334309 -0.054101676 -0.77190566 0.019679049
-0.18227446 0.11402354 0.60400003 -0.63319683 -0.053120382 -0.77216572 0.018743133
-0.18034057 0.1138394 0.60300004 -0.63097882 -0.054176982 -0.77390611 0.017354101
-0.17811574 0.11346652 0.60100001 -0.65206492 -0.063517831 -0.75549775 0.030895259
-0.17619541 0.1132825 0.60000002 -0.652906 -0.062464423 -0.75485897 0.030632764
-0.17398956 0.11290976 0.59800005 -0.65668118 -0.059700225 -0.75180173 0.033691026
-0.17150626 0.11234824 0.59500003 -0.64830238 -0.055809226 -0.75933474 0.030606829
-0.16961025 0.11216442 0.59400004 -0.64609176 -0.052165583 -0.76147497 0.029073253
-0.16743679 0.1117918 0.59200001 -0.64457411 -0.050415326 -0.7628777 0.032534637
-0.16555429 0.11160809 0.59100002 -0.64207673 -0.046486113 -0.76522976 0.033755951
-0.1633997 0.11123557 0.58900005 -0.63593763 -0.033684149 -0.77100503 0.040451936
-0.1618053 0.11124081 0.58900005 -0.6298914 -0.030107304 -0.77609956 0.028676689
-0.15966688 0.11086837 0.58700001 -0.61896998 -0.019423619 -0.78517443 0.036155201
-0.15753919 0.11049595 0.58500004 -0.61238629 -0.010851097 -0.79048425 0.036952827
-0.15515566 0.10993466 0.58200002 -0.59873646 -0.0031066407 -0.8009401 0.039230816
-0.1530522 0.10956227 0.58000004 -0.59691715 0.0056472798 -0.80228305 0.033473842
-0.15095946 0.10918988 0.57800001 -0.59617198 0.015663028 -0.80270398 0.025798092
-0.14887752 0.10881753 0.57600003 -0.60290641 0.021318538 -0.79752707 0.011324177
-0.14757353 0.10901196 0.57700002 -0.60794419 0.022369081 -0.79366463 0.0051579038
-0.14575793 0.10882857 0.57600003 -0.60562998 0.026686046 -0.79529887 0.00247677
-0.14394766 0.10864521 0.57500005 -0.60148847 0.02922949 -0.79834658 0.002152093
-0.1416474 0.10808393 0.57200003 -0.59231013 0.033011526 -0.8050335 0.0018198496
-0.13985312 0.10790057 0.57100004 -0.58822232 0.034524061 -0.80796206 0.0024406421
-0.13806418 0.10771724 0.57000005 -0.58120471 0.037928402 -0.81287295 0.0028849232
-0.13628048 0.10753389 0.56900001 -0.57535249 0.042486817 -0.81680131 0.0032160524
-0.13402849 0.10697255 0.56600004 -0.56133193 0.052338433 -0.82593411 0.0035312034
-0.1320267 0.1066002 0.56400001 -0.55107665 0.059129447 -0.83235705 0.0042535248
-0.13026699 0.10641683 0.56300002 -0.54291034 0.063159131 -0.8374123 0.0045205108
-0.12896989 0.1066115 0.56400001 -0.54162979 0.062714882 -0.83827436 0.0046165357
-0.12721534 0.10642815 0.56300002 -0.53486788 0.066264287 -0.84233326 0.0046409173
-0.12524277 0.10605573 0.56100005 -0.52344453 0.070996396 -0.84909678 0.0041013025
-0.12306036 0.10549422 0.55800003 -0.50748992 0.076180808 -0.8582834 0.0038934539
-0.12132972 0.1053108 0.55700004 -0.49719679 0.079328477 -0.86400366 0.0042464528
-0.11938924 0.10493827 0.55500001 -0.4826583 0.082306542 -0.87193269 0.0039675832
-0.11767182 0.1047548 0.55400002 -0.46614358 0.084926188 -0.8806234 0.004225174
-0.11595967 0.10457129 0.55300003 -0.45212796 0.086288594 -0.8877694 0.0040322402
-0.11445978 0.10457689 0.55300003 -0.44076675 0.089668736 -0.89313167 0.0043785013
-0.11336821 0.10496068 0.55500001 -0.4398464 0.088997744 -0.89365238 0.0047392771
-0.11145944 0.10458802 0.55300003 -0.41521749 0.09602239 -0.90464032 0.005159474
-0.10976019 0.10440443 0.55200005 -0.397414 0.099983901 -0.91217607 0.0047216467
-0.10787003 0.10403166 0.55000001 -0.37707943 0.10849797 -0.91980398 0.0051605692
-0.1063774 0.10403715 0.55000001 -0.36591768 0.11123121 -0.92397612 0.0056057521
-0.10469389 0.10385346 0.54900002 -0.34793359 0.11442062 -0.9305107 0.0060679591
-0.10301564 0.10366973 0.54800004 -0.3263987 0.11652066 -0.93802285 0.0058837044
-0.10115735 0.10329675 0.546 -0.30445799 0.11891177 -0.94507426 0.0057752673
-0.099674866 0.10330212 0.546 -0.28960872 0.12160565 -0.94938868 0.005467962
-0.098372042 0.10349666 0.54700005 -0.27665356 0.12419447 -0.95291048 0.005136773
-0.096886456 0.10350197 0.54700005 -0.25804964 0.12839799 -0.95756167 0.0049940273
-0.095400706 0.10350725 0.54700005 -0.24033636 0.13139485 -0.96175563 0.0054973173
-0.093743064 0.10332325 0.546 -0.21641371 0.13565968 -0.96683067 0.0063685449
-0.092259668 0.10332844 0.546 -0.19580239 0.13777274 -0.97091717 0.0067216335
-0.090776078 0.10333361 0.546 -0.17820014 0.13936532 -0.9740749 0.0071717105
-0.089292295 0.10333872 0.546 -0.15975049 0.14196667 -0.97689569 0.0077316416
-0.087325886 0.10277598 0.54300004 -0.12680671 0.14399394 -0.98142028 0.0083925221
-0.085691795 0.1025917 0.54200006 -0.099499688 0.14528535 -0.98437399 0.008431294
-0.084218338 0.10259665 0.54200006 -0.075948246 0.14783052 -0.98609227 0.0082002878
-0.08289738 0.10279085 0.54300004 -0.058014378 0.15000345 -0.98698193 0.0078801056
-0.081270896 0.10260639 0.54200006 -0.029938381 0.15162261 -0.9879849 0.0072270995
-0.079944134 0.10280051 0.54300004 -0.012410622 0.15182714 -0.98832917 0.0074272337
-0.078322731 0.10261593 0.54200006 0.011081235 0.15166835 -0.98836935 0.0079689268
-0.076990165 0.10280994 0.54300004 0.033945378 0.15289187 -0.98765981 0.0083403457
-0.075234778 0.10243588 0.54100001 0.057024192 0.15356 -0.98649257 0.0090563809
-0.074171841 0.10300851 0.54400003 0.078156635 0.15504964 -0.98481023 0.011217446
-0.072557889 0.10282367 0.54300004 0.1057548 0.15542981 -0.98216975 0.011860693
-0.071080111 0.10282812 0.54300004 0.12694453 0.15508601 -0.97971094 0.012399943
-0.069345787 0.10245374 0.54100001 0.15491679 0.15200442 -0.97616369 0.011708877
-0.067998588 0.10264744 0.54200006 0.17831647 0.15126573 -0.97227663 0.011054205
-0.066645764 0.10284108 0.54300004 0.20093438 0.15019819 -0.96802163 0.0099316817
-0.065287314 0.10303465 0.54400003 0.22213796 0.14875464 -0.96360099 0.0091448957
-0.063805982 0.10303878 0.54400003 0.24181446 0.14679435 -0.95915443 0.0088869743
-0.062439047 0.10323223 0.54500002 0.26227352 0.14543693 -0.95397103 0.0081076585
-0.061066497 0.10342563 0.546 0.28404382 0.14482912 -0.94780993 0.0081758564
-0.059470106 0.10324012 0.54500002 0.30295712 0.14004293 -0.94265842 0.0085460674
-0.057879016 0.1030545 0.54400003 0.31845146 0.13651568 -0.9380576 0.0080334926
-0.056500558 0.10324769 0.54500002 0.33532277 0.13397689 -0.9325282 0.0077984664
-0.055217445 0.10363026 0.54700005 0.35470223 0.13148591 -0.92568773 0.0081006531
-0.053825065 0.10382332 0.54800004 0.37239313 0.12843437 -0.91914523 0.008208313
-0.052331585 0.10382684 0.54800004 0.38564509 0.12550749 -0.91407096 0.0071557309
-0.051023509 0.10420921 0.55000001 0.40421528 0.12493936 -0.90609056 0.0058191894
-0.049704392 0.10459153 0.55200005 0.41854262 0.12401266 -0.89969051 0.0056604263
-0.048286911 0.1047843 0.55300003 0.43172014 0.12340622 -0.8935259 0.0052247476
-0.046863846 0.10497699 0.55400002 0.44588488 0.12425674 -0.88642365 0.0058680647
-0.045435198 0.10516962 0.55500001 0.45969746 0.12558056 -0.8791517 0.0066507249
-0.043921825 0.10517263 0.55500001 0.46854112 0.12268487 -0.87488151 0.0061373725
