# .PCD v0.7 - Point Cloud Data file format
VERSION 0.7
FIELDS x y z
SIZE 4 4 4
TYPE F F F
COUNT 1 1 1
WIDTH 1419
HEIGHT 1
VIEWPOINT 0 0 0 1 0 0 0
POINTS 1419
DATA ascii
0.10915332 0.1913531 0.68000001
0.11116318 0.19162868 0.68100005
0.11301237 0.19162285 0.68100005
0.11503012 0.19189839 0.68200004
0.11705315 0.19217385 0.68300003
0.1192556 0.19273067 0.68500006
0.12146878 0.19328743 0.68700004
0.12351318 0.19356281 0.68800002
0.12574512 0.1941195 0.69000006
0.12761793 0.19411351 0.69000006
0.12986591 0.19467016 0.69200003
0.13212466 0.19522676 0.69400001
0.13420105 0.19550207 0.69500005
0.1366744 0.19633992 0.69800001
0.13876688 0.19661522 0.69900006
0.14086469 0.19689052 0.70000005
0.14296781 0.1971658 0.70100003
0.14528292 0.19772236 0.70300001
0.14760882 0.19827893 0.70500004
0.14994548 0.19883552 0.70700002
0.15207809 0.19911084 0.708
0.15443361 0.19966747 0.71000004
0.15657964 0.1999429 0.71100003
0.15895401 0.20049961 0.71300006
0.16088785 0.20049389 0.71300006
0.16282165 0.2004883 0.71300006
0.16383107 0.19935803 0.70900005
0.16435121 0.19766554 0.70300001
0.16271028 0.19344272 0.68800002
-0.15840144 0.19549924 0.70200002
-0.14765464 0.20167466 0.72400004
-0.14548913 0.20140235 0.72300005
-0.14372599 0.20168722 0.72400004
-0.14117409 0.20085779 0.72100002
-0.13883148 0.20030692 0.71900004
-0.13688034 0.20031323 0.71900004
-0.13474143 0.20004094 0.71800005
-0.13297772 0.20032586 0.71900004
-0.13102624 0.20033221 0.71900004
-0.1288951 0.20005988 0.71800005
-0.12659244 0.19950889 0.71600002
-0.12447463 0.19923651 0.71500003
-0.12236212 0.19896415 0.71400005
-0.1202549 0.1986917 0.71300006
-0.11831892 0.19869792 0.71300006
-0.11654603 0.19898276 0.71400005
-0.11444653 0.19871022 0.71300006
-0.11251014 0.19871634 0.71300006
-0.11057361 0.19872244 0.71300006
-0.10833219 0.19817102 0.71100003
-0.10625117 0.19789827 0.71000004
-0.10417544 0.19762546 0.70900005
-0.10196077 0.19707385 0.70700002
-0.099898338 0.19680087 0.70600003
-0.097702414 0.19624913 0.70400006
-0.095517218 0.19569722 0.70200002
-0.093609445 0.19570281 0.70200002
-0.091701545 0.19570835 0.70200002
-0.089793481 0.1957138 0.70200002
-0.087634921 0.19516158 0.70000005
-0.08560957 0.1948881 0.69900006
-0.083589509 0.1946145 0.69800001
-0.081691787 0.19461961 0.69800001
-0.079679608 0.19434585 0.69700003
-0.077895954 0.19462964 0.69800001
-0.075888954 0.19435567 0.69700003
-0.073887274 0.19408162 0.69600004
-0.071787454 0.19352858 0.69400001
-0.069698408 0.19297546 0.69200003
-0.067522101 0.19214329 0.68900001
-0.06555257 0.1918688 0.68800002
-0.063588351 0.19159415 0.68700004
-0.061629463 0.19131942 0.68600005
-0.05958879 0.19076569 0.68400002
-0.05747449 0.18993293 0.68100005
-0.05553975 0.18965782 0.68000001
-0.053610358 0.18938257 0.67900002
-0.051686309 0.18910725 0.67800003
-0.049767602 0.18883182 0.67700005
-0.047712654 0.18799835 0.67400002
-0.045878157 0.18800159 0.67400002
-0.043847527 0.18716785 0.671
-0.042021018 0.18717085 0.671
-0.040074624 0.18661582 0.66900003
-0.038310576 0.18689753 0.67000002
-0.036486547 0.18690014 0.67000002
-0.034610715 0.18662368 0.66900003
-0.032740261 0.18634711 0.66800004
-0.030967759 0.18662833 0.66900003
-0.029189745 0.18690942 0.67000002
-0.027365386 0.18691145 0.67000002
-0.025540968 0.18691333 0.67000002
-0.023681102 0.18663612 0.66900003
-0.021859305 0.18663774 0.66900003
-0.020067414 0.18691823 0.67000002
-0.018242808 0.18691958 0.67000002
-0.01644267 0.18719985 0.671
-0.014615266 0.18720095 0.671
-0.012768775 0.18692297 0.67000002
-0.010927704 0.18664482 0.66900003
-0.0091192788 0.18692455 0.67000002
-0.0072944998 0.18692514 0.67000002
-0.0054860325 0.18748359 0.67200005
-0.0036503389 0.18720493 0.671
-0.0018255176 0.18748415 0.67200005
4.7547633e-06 0.18776317 0.67300004
0.0018459354 0.18860009 0.67600006
0.0036870916 0.18859991 0.67600006
0.0055282395 0.18859957 0.67600006
0.0073693753 0.18859911 0.67600006
0.0092241205 0.18887749 0.67700005
0.011084294 0.18915573 0.67800003
0.012930817 0.18915486 0.67800003
0.014799111 0.18943286 0.67900002
0.016672818 0.18971071 0.68000001
0.018579181 0.19026741 0.68200004
0.020466434 0.19054501 0.68300003
0.022293709 0.19026448 0.68200004
0.024150906 0.19026282 0.68200004
0.026008056 0.19026104 0.68200004
0.027946863 0.19081706 0.68400002
0.029852927 0.19109398 0.68500006
0.031671762 0.1908128 0.68400002
0.033485092 0.19053154 0.68300003
0.035344657 0.19052911 0.68300003
0.037258621 0.19080552 0.68400002
0.03912076 0.19080283 0.68400002
0.040982816 0.19080001 0.68400002
0.042844802 0.19079711 0.68400002
0.044706695 0.19079407 0.68400002
0.046500418 0.19051197 0.68300003
0.048288614 0.19022979 0.68200004
0.049997739 0.18966855 0.68000001
0.051924627 0.189944 0.68100005
0.053777885 0.18994039 0.68100005
0.055549353 0.18965778 0.68000001
0.05739969 0.18965399 0.68000001
0.059337042 0.18992898 0.68100005
0.061189879 0.18992494 0.68100005
0.06295003 0.18964192 0.68000001
0.064609334 0.18907999 0.67800003
0.066453673 0.18907568 0.67800003
0.068297885 0.1890713 0.67800003
0.070245437 0.18934566 0.67900002
0.07230448 0.1898988 0.68100005
0.073938698 0.18933642 0.67900002
0.075673543 0.18905285 0.67800003
0.0774028 0.18876916 0.67700005
0.079360612 0.1890431 0.67800003
0.080964409 0.18848047 0.67600006
0.082802184 0.18847543 0.67600006
0.084514618 0.1881915 0.67500001
0.08634942 0.18818633 0.67500001
0.088053435 0.18790227 0.67400002
0.089885242 0.18789697 0.67400002
0.091989078 0.18844916 0.67600006
0.093964852 0.18872248 0.67700005
0.095804408 0.18871698 0.67700005
0.097499602 0.18843268 0.67600006
0.099483125 0.18870582 0.67700005
0.10132229 0.18870017 0.67700005
0.10300893 0.18841574 0.67600006
0.10500019 0.18868873 0.67700005
0.10699675 0.18896165 0.67800003
0.10899862 0.18923452 0.67900002
0.11100578 0.18950737 0.68000001
0.11301825 0.18978015 0.68100005
0.11486735 0.18977423 0.68100005
0.1168877 0.19004695 0.68200004
0.11873926 0.19004098 0.68200004
0.12112115 0.19087093 0.68500006
0.12316013 0.19114354 0.68600005
0.12593341 0.19253063 0.69100004
0.12780891 0.19252457 0.69100004
0.12987195 0.19279706 0.69200003
0.13213071 0.1933482 0.69400001
0.134014 0.19334212 0.69400001
0.13648464 0.19417177 0.69700003
0.13817732 0.19388713 0.69600004
0.14046821 0.1944382 0.69800001
0.14276986 0.19498929 0.70000005
0.14508225 0.19554032 0.70200002
0.14740542 0.19609141 0.70400006
0.14973934 0.19664249 0.70600003
0.15208401 0.19719355 0.708
0.15443948 0.19774465 0.71000004
0.15680569 0.19829576 0.71200001
0.15895979 0.1985684 0.71300006
0.16111921 0.19884109 0.71400005
0.16282727 0.19855687 0.71300006
0.16476093 0.19855122 0.71300006
0.16669457 0.19854565 0.71300006
0.16815512 0.19798322 0.71100003
0.16888715 0.19658555 0.70600003
0.16620505 0.1912899 0.68700004
-0.16168116 0.19524662 0.708
-0.15773022 0.19277042 0.69900006
-0.15561154 0.19250041 0.69800001
-0.15284535 0.20135674 0.73000002
-0.14941841 0.19943221 0.72300005
-0.14766093 0.19971438 0.72400004
-0.14650163 0.20082417 0.72800004
-0.14432792 0.20055473 0.72700006
-0.14157206 0.19945766 0.72300005
-0.13922401 0.19891231 0.72100002
-0.1368867 0.19836693 0.71900004
-0.13456011 0.19782153 0.71700001
-0.13242921 0.19755201 0.71600002
-0.13048586 0.19755839 0.71600002
-0.12854239 0.19756475 0.71600002
-0.12659876 0.1975711 0.71600002
-0.12448095 0.19730154 0.71500003
-0.12219702 0.19675596 0.71300006
-0.1199238 0.19621032 0.71100003
-0.11799322 0.19621657 0.71100003
-0.11638901 0.19677477 0.71300006
-0.11429217 0.19650498 0.71200001
-0.11235847 0.19651115 0.71200001
-0.11026952 0.19624127 0.71100003
-0.10818587 0.19597137 0.71000004
-0.10595783 0.19542532 0.708
-0.10388748 0.19515526 0.70700002
-0.10182241 0.19488515 0.70600003
-0.099762633 0.19461495 0.70500004
-0.09743055 0.19379255 0.70200002
-0.095522866 0.19379824 0.70200002
-0.093348324 0.19325174 0.70000005
-0.09157642 0.19353338 0.70100003
-0.089543097 0.19326279 0.70000005
-0.087640278 0.19326821 0.70000005
-0.085369878 0.19244522 0.69700003
-0.083355173 0.19217438 0.69600004
-0.081345767 0.1919034 0.69500005
-0.079570316 0.1921846 0.69600004
-0.077677689 0.19218962 0.69600004
-0.075676039 0.19191837 0.69500005
-0.0736797 0.19164704 0.69400001
-0.071688659 0.19137558 0.69300002
-0.069702953 0.19110405 0.69200003
-0.067624547 0.19055624 0.69000006
-0.065652184 0.19028445 0.68900001
-0.063685134 0.19001254 0.68800002
-0.061633579 0.18946438 0.68600005
-0.059592783 0.18891607 0.68400002
-0.057562765 0.18836762 0.68200004
-0.055543508 0.18781903 0.68000001
-0.053614009 0.18754658 0.67900002
-0.051766083 0.18755019 0.67900002
-0.049771018 0.18700123 0.67700005
-0.047786742 0.18645214 0.67500001
-0.045813259 0.18590295 0.67300004
-0.043915931 0.18562984 0.67200005
-0.042023953 0.1853566 0.671
-0.040077433 0.18480699 0.66900003
-0.03831327 0.18508601 0.67000002
-0.036489125 0.18508865 0.67000002
-0.034664903 0.18509117 0.67000002
-0.032742582 0.18454105 0.66800004
-0.030969962 0.18481958 0.66900003
-0.029191826 0.18509798 0.67000002
-0.027408186 0.18537627 0.671
-0.02558092 0.18537818 0.671
-0.023682803 0.18482742 0.66900003
-0.021828201 0.18455277 0.66800004
-0.020008955 0.18455428 0.66800004
-0.018216895 0.18483193 0.66900003
-0.016419351 0.18510947 0.67000002
-0.014616323 0.18538687 0.671
-0.01278876 0.18538786 0.671
-0.010961168 0.18538873 0.671
-0.0091199409 0.18511319 0.67000002
-0.0073059169 0.18539006 0.671
-0.0054782657 0.18539052 0.671
-0.003650604 0.18539087 0.671
-0.0018229334 0.18539107 0.671
4.7551098e-06 0.18594372 0.67300004
0.001840608 0.18621995 0.67400002
0.0036819046 0.18649603 0.67500001
0.0055204621 0.18649568 0.67500001
0.0073699099 0.18677151 0.67600006
0.0092384154 0.1873235 0.67800003
0.011085098 0.18732275 0.67800003
0.01291268 0.18704557 0.67700005
0.014778384 0.18732087 0.67800003
0.016674023 0.18787229 0.68000001
0.018580522 0.18842359 0.68200004
0.020437939 0.18842217 0.68200004
0.022262622 0.18814436 0.68100005
0.024117224 0.18814269 0.68100005
0.026009919 0.18841717 0.68200004
0.027907997 0.18869148 0.68300003
0.029811468 0.18896569 0.68400002
0.031627707 0.18868724 0.68300003
0.033487465 0.18868491 0.68300003
0.035295404 0.18840621 0.68200004
0.037261244 0.18895616 0.68400002
0.039123509 0.18895346 0.68400002
0.04104561 0.18922688 0.68500006
0.042847794 0.18894769 0.68400002
0.044709805 0.18894464 0.68400002
0.046435554 0.188389 0.68200004
0.04829194 0.18838571 0.68200004
0.050074704 0.18810609 0.68100005
0.051928177 0.1881026 0.68100005
0.053702574 0.18782277 0.68000001
0.055471428 0.18754284 0.67900002
0.057319138 0.187539 0.67900002
0.059166748 0.18753509 0.67900002
0.061014242 0.18753104 0.67900002
0.062861629 0.1875269 0.67900002
0.064613603 0.18724652 0.67800003
0.066458032 0.18724217 0.67800003
0.068201609 0.18696161 0.67700005
0.07024999 0.18750939 0.67900002
0.07209678 0.18750477 0.67900002
0.073834531 0.18722394 0.67800003
0.075566724 0.18694301 0.67700005
0.077407688 0.18693817 0.67700005
0.079248518 0.18693322 0.67700005
0.080849662 0.18637598 0.67500001
0.082562305 0.18609479 0.67400002
0.084394574 0.18608962 0.67400002
0.086098798 0.18580833 0.67300004
0.087928079 0.18580306 0.67300004
0.089757234 0.18579771 0.67300004
0.091994517 0.18662052 0.67600006
0.093970366 0.18689109 0.67700005
0.095809974 0.18688554 0.67700005
0.097360954 0.18632782 0.67500001
0.099194869 0.18632218 0.67500001
0.10102864 0.18631649 0.67500001
0.10270988 0.18603475 0.67400002
0.10469575 0.18630497 0.67500001
0.10684478 0.18685117 0.67700005
0.10900449 0.18739729 0.67900002
0.11101169 0.18766733 0.68000001
0.1130242 0.18793736 0.68100005
0.115042 0.18820733 0.68200004
0.1167223 0.18792537 0.68100005
0.11891938 0.18847123 0.68300003
0.1211272 0.18901704 0.68500006
0.12352528 0.18983874 0.68800002
0.12557501 0.19010852 0.68900001
0.12763005 0.19037832 0.69000006
0.12987807 0.19092394 0.69200003
0.13213685 0.19146958 0.69400001
0.13402012 0.19146341 0.69400001
0.13609913 0.19173314 0.69500005
0.1379849 0.19172698 0.69500005
0.14027306 0.19227256 0.69700003
0.14257199 0.19281815 0.69900006
0.14488165 0.1933637 0.70100003
0.14720207 0.19390927 0.70300001
0.14953327 0.19445482 0.70500004
0.15166038 0.19472459 0.70600003
0.1540104 0.19527017 0.708
0.15637116 0.1958158 0.71000004
0.15851976 0.19608565 0.71100003
0.16044804 0.19607975 0.71100003
0.16260464 0.1963497 0.71200001
0.16476662 0.1966197 0.71300006
0.16693397 0.19688976 0.71400005
0.16910666 0.19715986 0.71500003
0.17128478 0.19743003 0.71600002
0.17250054 0.19659738 0.71300006
0.17247675 0.19438623 0.70500004
0.16869918 0.18803953 0.68200004
-0.17007729 0.20096846 0.73600006
-0.15940326 0.19059813 0.69800001
-0.14735572 0.17831576 0.65300006
-0.15182732 0.1859675 0.68100005
-0.15483192 0.19937357 0.73000002
-0.15054852 0.19637564 0.71900004
-0.14921808 0.1972014 0.72200006
-0.14787129 0.19802721 0.72500002
-0.14610559 0.1983068 0.72600001
-0.14373878 0.19776699 0.72400004
-0.14157853 0.19750032 0.72300005
-0.13923046 0.19696045 0.72100002
-0.13689314 0.19642057 0.71900004
-0.13419119 0.19533429 0.71500003
-0.13188073 0.19479431 0.71300006
-0.12994553 0.19480076 0.71300006
-0.12801018 0.19480717 0.71300006
-0.12607472 0.19481356 0.71300006
-0.12379088 0.19427347 0.71100003
-0.12168916 0.19400659 0.71000004
-0.11959274 0.19373968 0.70900005
-0.11766757 0.19374596 0.70900005
-0.11590552 0.19402553 0.71000004
-0.11381679 0.19375847 0.70900005
-0.11189121 0.1937647 0.70900005
-0.10965525 0.19322424 0.70700002
-0.10773479 0.19323035 0.70700002
-0.10536519 0.19241647 0.70400006
-0.10359955 0.1926958 0.70500004
-0.10153984 0.19242838 0.70400006
-0.099485435 0.19216092 0.70300001
-0.097436301 0.19189338 0.70200002
-0.09539248 0.19162577 0.70100003
-0.093353935 0.19135809 0.70000005
-0.091320693 0.19109032 0.69900006
-0.089420654 0.19109583 0.69900006
-0.087395273 0.19082789 0.69800001
-0.085252695 0.19028646 0.69600004
-0.083240621 0.19001833 0.69500005
-0.081350908 0.19002354 0.69500005
-0.079575367 0.19030203 0.69600004
-0.077682652 0.19030708 0.69600004
-0.075680912 0.19003858 0.69500005
-0.073684476 0.18976998 0.69400001
-0.071486443 0.18895438 0.69100004
-0.069506064 0.18868555 0.69000006
-0.067432985 0.18814315 0.68800002
-0.065656543 0.18842104 0.68900001
-0.063411683 0.18733148 0.68500006
-0.061458018 0.18706217 0.68400002
-0.059422549 0.18651928 0.68200004
-0.057566673 0.18652327 0.68200004
-0.055628996 0.18625365 0.68100005
-0.053696644 0.18598387 0.68000001
-0.051693399 0.18544048 0.67800003
-0.049627412 0.18462345 0.67500001
-0.047648463 0.18407981 0.67300004
-0.045816455 0.18408306 0.67300004
-0.043853648 0.18353914 0.671
-0.04196427 0.18326862 0.67000002
-0.040020347 0.18272445 0.66800004
-0.038315978 0.1832743 0.67000002
-0.036437247 0.18300341 0.66900003
-0.034667369 0.18327948 0.67000002
-0.032744918 0.18273477 0.66800004
-0.030972175 0.18301062 0.66900003
-0.029150348 0.18301278 0.66900003
-0.027328458 0.18301481 0.66900003
-0.025506513 0.18301672 0.66900003
-0.023684513 0.18301851 0.66900003
-0.02186246 0.18302016 0.66900003
-0.020010404 0.18274809 0.66800004
-0.018163756 0.18247591 0.66700006
-0.01637153 0.18275075 0.66800004
-0.014573819 0.18302545 0.66900003
-0.01277063 0.18330003 0.67000002
-0.01094563 0.1833009 0.67000002
-0.0091342181 0.18357518 0.671
-0.00731734 0.18384941 0.67200005
-0.0054786671 0.18357629 0.671
-0.0036508709 0.18357661 0.671
-0.0018230665 0.18357681 0.671
4.7483909e-06 0.18385047 0.67200005
0.0018407424 0.18439758 0.67400002
0.0036767188 0.18439737 0.67400002
0.0055208653 0.18467061 0.67500001
0.0073486422 0.18439656 0.67400002
0.0092254626 0.18521671 0.67700005
0.011053204 0.18494238 0.67600006
0.012913623 0.18521512 0.67700005
0.01477946 0.18548769 0.67800003
0.016675236 0.18603368 0.68000001
0.018554624 0.18630597 0.68100005
0.02043942 0.18657812 0.68200004
0.022264233 0.18630302 0.68100005
0.024154384 0.18657489 0.68200004
0.026011791 0.18657309 0.68200004
0.027910003 0.18684469 0.68300003
0.029726434 0.18656908 0.68200004
0.031583659 0.18656686 0.68200004
0.033440825 0.18656455 0.68200004
0.035297912 0.18656209 0.68200004
0.037154928 0.18655951 0.68200004
0.039069071 0.18683034 0.68300003
0.040928651 0.18682751 0.68300003
0.042725507 0.18655103 0.68200004
0.04451682 0.18627444 0.68100005
0.0463707 0.18627125 0.68100005
0.048224483 0.18626796 0.68100005
0.050004628 0.185991 0.68000001
0.05185549 0.18598747 0.68000001
0.053627275 0.18571037 0.67900002
0.055311806 0.18515962 0.67700005
0.057238609 0.18542928 0.67800003
0.058996454 0.18515182 0.67700005
0.061018348 0.18569474 0.67900002
0.062865831 0.1856906 0.67900002
0.064617895 0.18541285 0.67800003
0.066266365 0.18486157 0.67600006
0.068105325 0.18485713 0.67600006
0.070151113 0.1853995 0.67800003
0.071995258 0.18539485 0.67800003
0.073730379 0.18511669 0.67700005
0.075459935 0.18483847 0.67600006
0.077298261 0.18483357 0.67600006
0.079136446 0.18482859 0.67600006
0.080854721 0.18455014 0.67500001
0.082567431 0.18427163 0.67400002
0.084274553 0.18399304 0.67300004
0.085976124 0.18371442 0.67200005
0.087802753 0.18370911 0.67200005
0.089629263 0.18370374 0.67200005
0.0918639 0.18451838 0.67500001
0.093837097 0.1847862 0.67600006
0.095674053 0.18478063 0.67600006
0.097078115 0.18395495 0.67300004
0.098759674 0.18367596 0.67200005
0.10058534 0.18367025 0.67200005
0.10256326 0.18393779 0.67300004
0.10439135 0.18393196 0.67300004
0.10653498 0.18447269 0.67500001
0.10868933 0.18501335 0.67700005
0.11069115 0.18528067 0.67800003
0.11269824 0.18554793 0.67900002
0.11471066 0.18581519 0.68000001
0.11672835 0.18608236 0.68100005
0.11875135 0.18634951 0.68200004
0.12095647 0.18688983 0.68400002
0.12335189 0.18770339 0.68700004
0.1253989 0.18797038 0.68800002
0.12745126 0.1882374 0.68900001
0.12932119 0.18823117 0.68900001
0.13176225 0.18904454 0.69200003
0.1338332 0.18931146 0.69300002
0.13630116 0.19012477 0.69600004
0.13799107 0.18984535 0.69500005
0.14027925 0.19038543 0.69700003
0.14257817 0.19092554 0.69900006
0.14468113 0.19119243 0.70000005
0.14678942 0.19145937 0.70100003
0.14890306 0.19172634 0.70200002
0.15123683 0.19226643 0.70400006
0.15379891 0.19307961 0.70700002
0.15593669 0.19334665 0.708
0.15785685 0.19334061 0.708
0.1600026 0.19360773 0.70900005
0.16215374 0.19387487 0.71000004
0.16477242 0.19468819 0.71300006
0.16670589 0.19468237 0.71300006
0.16911232 0.19522271 0.71500003
0.17129034 0.19549005 0.71600002
0.17347376 0.19575749 0.71700001
0.17492861 0.19520596 0.71500003
0.17563047 0.19383551 0.71000004
0.17555499 0.19164626 0.70200002
0.17265542 0.18645431 0.68300003
-0.16939011 0.19816357 0.73300004
-0.16032264 0.18978873 0.70200002
-0.14984357 0.17952091 0.66400003
-0.14313783 0.17357843 0.64200002
-0.15746287 0.19820142 0.73300004
-0.15483834 0.19739668 0.73000002
-0.15118305 0.19523987 0.72200006
-0.14922452 0.19524632 0.72200006
-0.14685793 0.19471194 0.72000003
-0.14490458 0.19471842 0.72000003
-0.14255406 0.19418405 0.71800005
-0.14099756 0.19473152 0.72000003
-0.13885076 0.19446759 0.71900004
-0.13670924 0.19420366 0.71800005
-0.13438535 0.19366921 0.71600002
-0.13207218 0.19313475 0.71400005
-0.1303165 0.19341175 0.71500003
-0.12801664 0.19287723 0.71300006
-0.12590431 0.1926132 0.71200001
-0.12362317 0.19207859 0.71000004
-0.12169554 0.192085 0.71000004
-0.11976778 0.19209139 0.71000004
-0.11767388 0.19182718 0.70900005
-0.11574855 0.19183351 0.70900005
-0.11350196 0.19129865 0.70700002
-0.11158176 0.19130489 0.70700002
-0.1093512 0.19076991 0.70500004
-0.10728375 0.19050547 0.70400006
-0.10522155 0.19024093 0.70300001
-0.10331162 0.19024694 0.70300001
-0.10125729 0.1899823 0.70200002
-0.099349782 0.18998821 0.70200002
-0.097164497 0.18945278 0.70000005
-0.095262125 0.18945856 0.70000005
-0.093092844 0.18892291 0.69800001
-0.091195613 0.18892856 0.69800001
-0.089042358 0.18839276 0.69600004
-0.08727549 0.18866892 0.69700003
-0.085135527 0.18813294 0.69500005
-0.083365649 0.18840894 0.69600004
-0.081356063 0.18814346 0.69500005
-0.079466127 0.18814859 0.69500005
-0.077464417 0.18788293 0.69400001
-0.075359121 0.18734644 0.69200003
-0.07337074 0.18708055 0.69100004
-0.071284212 0.18654381 0.68900001
-0.069510661 0.18681921 0.69000006
-0.06743747 0.18628225 0.68800002
-0.065565631 0.1862867 0.68800002
-0.063415945 0.18547875 0.68500006
-0.061552033 0.18548296 0.68500006
-0.059513718 0.18494549 0.68300003
-0.057570603 0.18467872 0.68200004
-0.055632807 0.18441181 0.68100005
-0.05370035 0.18414477 0.68000001
-0.051620729 0.183336 0.67700005
-0.049630862 0.18279791 0.67500001
-0.047651786 0.18225968 0.67300004
-0.04581967 0.18226297 0.67300004
-0.043922089 0.18199529 0.67200005
-0.041967232 0.18145667 0.67000002
-0.040083092 0.18118875 0.66900003
-0.038318701 0.18146238 0.67000002
-0.036385376 0.18092336 0.66800004
-0.034566358 0.18092592 0.66800004
-0.032698244 0.18065746 0.66700006
-0.030928101 0.18093061 0.66800004
-0.029108873 0.18093279 0.66800004
-0.027289581 0.18093482 0.66800004
-0.025470229 0.18093674 0.66800004
-0.023650827 0.18093853 0.66800004
-0.021831367 0.18094018 0.66800004
-0.019981904 0.18067084 0.66700006
-0.018137844 0.18040136 0.66600001
-0.016348215 0.18067351 0.66700006
-0.014553099 0.18094552 0.66800004
-0.012752503 0.18121736 0.66900003
-0.010946433 0.18148914 0.67000002
-0.0091348886 0.18176073 0.671
-0.0073287664 0.1823031 0.67300004
-0.0054872348 0.1820327 0.67200005
-0.0036565803 0.18203303 0.67200005
-0.0018232006 0.18176235 0.671
4.7487401e-06 0.1820333 0.67200005
0.001832684 0.18176235 0.671
0.0036660777 0.18203303 0.67200005
0.0055130916 0.18257447 0.67400002
0.0073600854 0.18284486 0.67500001
0.0092125125 0.18311514 0.67600006
0.011070366 0.18338525 0.67700005
0.012952719 0.18392614 0.67900002
0.014845941 0.18446688 0.68100005
0.016700977 0.18446574 0.68100005
0.018555978 0.18446444 0.68100005
0.020380963 0.18419214 0.68000001
0.022265851 0.18446144 0.68100005
0.024156136 0.18473063 0.68200004
0.026013676 0.18472882 0.68200004
0.027912023 0.18499772 0.68300003
0.029728577 0.18472479 0.68200004
0.031539623 0.18445173 0.68100005
0.033394184 0.18444937 0.68100005
0.035300437 0.18471776 0.68200004
0.03715758 0.18471517 0.68200004
0.039014649 0.18471245 0.68200004
0.040871624 0.18470961 0.68200004
0.042791169 0.18497746 0.68300003
0.044519957 0.18443273 0.68100005
0.04630585 0.1841587 0.68000001
0.048227854 0.18442622 0.68100005
0.050008103 0.18415196 0.68000001
0.051859077 0.1841484 0.68000001
0.053551983 0.18360315 0.67800003
0.055397302 0.1835994 0.67800003
0.05724252 0.18359554 0.67800003
0.059000462 0.18332078 0.67700005
0.060932599 0.18358749 0.67800003
0.062777467 0.1835833 0.67800003
0.064431585 0.1830375 0.67600006
0.066270776 0.18303312 0.67600006
0.067908324 0.18248715 0.67400002
0.06994877 0.18302411 0.67600006
0.071681373 0.18274871 0.67500001
0.073626243 0.18301469 0.67600006
0.075353161 0.18273914 0.67500001
0.077303201 0.18300495 0.67600006
0.079141483 0.18299995 0.67600006
0.081099413 0.18326557 0.67700005
0.082695104 0.18271899 0.67500001
0.084405012 0.18244307 0.67400002
0.085981414 0.18189642 0.67200005
0.087677442 0.18162039 0.671
0.089501299 0.181615 0.671
0.091733314 0.18242151 0.67400002
0.093703851 0.18268657 0.67500001
0.095538139 0.18268093 0.67500001
0.096939534 0.18186338 0.67200005
0.098765396 0.18185766 0.67200005
0.1004414 0.18158127 0.671
0.10256907 0.18211667 0.67300004
0.1042421 0.18184024 0.67200005
0.10638306 0.18237551 0.67400002
0.10853475 0.18291073 0.67600006
0.11069717 0.18344586 0.67800003
0.11253832 0.18343979 0.67800003
0.11454803 0.18370426 0.67900002
0.11656304 0.18396868 0.68000001
0.11875749 0.18450361 0.68200004
0.12096263 0.18503846 0.68400002
0.12317854 0.18557329 0.68600005
0.12522288 0.18583757 0.68700004
0.12708752 0.18583132 0.68700004
0.12876433 0.18555455 0.68600005
0.13119727 0.18635975 0.68900001
0.13345322 0.1868944 0.69100004
0.13591576 0.18769948 0.69400001
0.13839446 0.18850455 0.69700003
0.14048678 0.18876867 0.69800001
0.14258441 0.18903281 0.69900006
0.14468735 0.18929695 0.70000005
0.14679563 0.1895611 0.70100003
0.14890924 0.18982528 0.70200002
0.15102816 0.19008943 0.70300001
0.15315242 0.19035368 0.70400006
0.15528202 0.1906179 0.70500004
0.15719399 0.19061181 0.70500004
0.15955724 0.19114648 0.70700002
0.16170289 0.19141082 0.708
0.16431609 0.19221592 0.71100003
0.16647789 0.19248036 0.71200001
0.16888157 0.19301519 0.71400005
0.17105681 0.19327973 0.71500003
0.17299548 0.19327404 0.71500003
0.17468946 0.19299813 0.71400005
0.17687273 0.1932629 0.71500003
0.17881131 0.1932575 0.71500003
0.1802443 0.19271164 0.71300006
0.18013336 0.19054422 0.70500004
0.17455646 0.18270142 0.67600006
-0.16361879 0.18948692 0.708
-0.15987185 0.18735181 0.70000005
-0.15842499 0.18789314 0.70200002
-0.15161607 0.18201067 0.68000001
-0.15219472 0.18496104 0.69100004
-0.15641184 0.19246222 0.71900004
-0.1570397 0.19568087 0.73100001
-0.15272371 0.19274275 0.72000003
-0.15077074 0.19274926 0.72000003
-0.14840427 0.19222037 0.71800005
-0.14625251 0.19195916 0.71700001
-0.14410608 0.19169797 0.71600002
-0.14196494 0.1914368 0.71500003
-0.14022078 0.19171111 0.71600002
-0.13808483 0.19144996 0.71500003
-0.13595417 0.19118874 0.71400005
-0.13364111 0.19065978 0.71200001
-0.13152376 0.19039854 0.71100003
-0.12959395 0.19040507 0.71100003
-0.12766404 0.19041161 0.71100003
-0.12538028 0.18988252 0.70900005
-0.12328137 0.18962117 0.708
-0.12135914 0.18962762 0.708
-0.11943678 0.18963403 0.708
-0.11734831 0.18937261 0.70700002
-0.11526509 0.1891111 0.70600003
-0.11318716 0.18884958 0.70500004
-0.11111452 0.18858796 0.70400006
-0.10889204 0.18805842 0.70200002
-0.10683267 0.18779667 0.70100003
-0.10492827 0.18780279 0.70100003
-0.10317068 0.18807676 0.70200002
-0.10111901 0.18781485 0.70100003
-0.099214152 0.18782079 0.70100003
-0.097170331 0.18755876 0.70000005
-0.095131792 0.18729661 0.69900006
-0.093098521 0.18703438 0.69800001
-0.090939902 0.18650414 0.69600004
-0.089047872 0.1865097 0.69600004
-0.087155715 0.18651521 0.69600004
-0.085385904 0.18678863 0.69700003
-0.083370946 0.186526 0.69600004
-0.081361271 0.18626326 0.69500005
-0.079356886 0.18600041 0.69400001
-0.077357814 0.18573748 0.69300002
-0.075146221 0.18493839 0.69000006
-0.073056996 0.18440717 0.68800002
-0.071081989 0.1841439 0.68700004
-0.069313779 0.18441664 0.68800002
-0.06734395 0.18415315 0.68700004
-0.065379433 0.18388954 0.68600005
-0.063235059 0.18308969 0.68300003
-0.061376482 0.18309392 0.68300003
-0.059343502 0.1825619 0.68100005
-0.057490136 0.18256593 0.68100005
-0.05539155 0.18176554 0.67800003
-0.053546119 0.18176933 0.67800003
-0.051471811 0.18096867 0.67500001
-0.04948727 0.180436 0.67300004
-0.047584321 0.1801713 0.67200005
-0.045754805 0.18017459 0.67200005
-0.043859836 0.17990963 0.671
-0.041907575 0.17937645 0.66900003
-0.040026031 0.17911123 0.66800004
-0.03820705 0.17911404 0.66800004
-0.036333513 0.17884856 0.66700006
-0.034465343 0.17858297 0.66600001
-0.032651573 0.17858538 0.66600001
-0.030884035 0.17885582 0.66700006
-0.029067405 0.17885801 0.66700006
-0.027250705 0.17886007 0.66700006
-0.025433952 0.17886199 0.66700006
-0.023687957 0.17940007 0.66900003
-0.021832962 0.17913361 0.66800004
-0.019983366 0.17886698 0.66700006
-0.018111939 0.17833203 0.66500002
-0.016300388 0.17833327 0.66500002
-0.014510592 0.17860259 0.66600001
-0.012715315 0.17887177 0.66700006
-0.010914559 0.17914079 0.66800004
-0.009121947 0.1796779 0.67000002
-0.0073075262 0.17994669 0.671
-0.0054876395 0.18021534 0.67200005
-0.0036568507 0.18021569 0.67200005
-0.0018260526 0.18021588 0.67200005
4.7490907e-06 0.18021594 0.67200005
0.0018355508 0.18021588 0.67200005
0.0036772604 0.18075202 0.67400002
0.0055134986 0.18075168 0.67400002
0.007349724 0.18075122 0.67400002
0.0091859326 0.18075061 0.67400002
0.011054829 0.1812862 0.67600006
0.012953673 0.18208984 0.67900002
0.01482523 0.182357 0.68000001
0.01665315 0.18208766 0.67900002
0.018475587 0.1818182 0.67800003
0.020322507 0.18181676 0.67800003
0.022234779 0.18235154 0.68000001
0.0241579 0.18288618 0.68200004
0.026015567 0.18288435 0.68200004
0.027873179 0.1828824 0.68200004
0.029643539 0.18234397 0.68000001
0.031449266 0.18207361 0.67900002
0.033347547 0.18233941 0.68000001
0.035302974 0.18287323 0.68200004
0.037160244 0.18287063 0.68200004
0.039074641 0.18313603 0.68300003
0.040814601 0.18259691 0.68100005
0.042731557 0.18286207 0.68200004
0.044457726 0.18232271 0.68000001
0.04630911 0.18231949 0.68000001
0.048160404 0.18231617 0.68000001
0.050011601 0.18231271 0.68000001
0.051862687 0.18230915 0.68000001
0.053634681 0.1820374 0.67900002
0.055401128 0.18176553 0.67800003
0.05724645 0.18176164 0.67800003
0.059004493 0.18148956 0.67700005
0.060846861 0.18148547 0.67700005
0.062596515 0.18121321 0.67600006
0.064340591 0.18094085 0.67500001
0.066079125 0.18066841 0.67400002
0.067912839 0.18066394 0.67400002
0.069849901 0.18092738 0.67500001
0.071792282 0.18119076 0.67600006
0.073631056 0.18118599 0.67600006
0.075246394 0.18064506 0.67400002
0.077193812 0.18090816 0.67500001
0.079146542 0.18117116 0.67600006
0.081104554 0.18143402 0.67700005
0.082822837 0.18116082 0.67600006
0.084410295 0.1806196 0.67400002
0.085858792 0.17981033 0.671
0.087552167 0.17953698 0.67000002
0.089373372 0.17953156 0.67000002
0.091466643 0.18006195 0.67200005
0.093292989 0.18005636 0.67200005
0.094977632 0.17978279 0.671
0.096512452 0.17924125 0.66900003
0.098477185 0.17950344 0.67000002
0.10044721 0.17976555 0.671
0.10242254 0.1800276 0.67200005
0.10424799 0.1800217 0.67200005
0.10638902 0.18055153 0.67400002
0.10838018 0.18081337 0.67500001
0.11053995 0.18134306 0.67700005
0.11237841 0.18133697 0.67700005
0.11438546 0.18159868 0.67800003
0.11656921 0.18212821 0.68000001
0.11858956 0.18238983 0.68100005
0.12079203 0.18291923 0.68300003
0.1226461 0.18291296 0.68300003
0.1248646 0.18344228 0.68500006
0.12672383 0.18343599 0.68500006
0.12877062 0.18369745 0.68600005
0.13101315 0.18422666 0.68800002
0.1332664 0.18475586 0.69000006
0.1355304 0.185285 0.69200003
0.1378051 0.18581416 0.69400001
0.1398893 0.18607554 0.69500005
0.14218275 0.18660462 0.69700003
0.14448698 0.18713373 0.69900006
0.14680193 0.18766278 0.70100003
0.14870338 0.18765646 0.70100003
0.15081957 0.18791786 0.70200002
0.15272352 0.18791158 0.70200002
0.15484765 0.18817307 0.70300001
0.15653117 0.18789922 0.70200002
0.15911195 0.18869609 0.70500004
0.16148052 0.1892253 0.70700002
0.16385986 0.18975453 0.70900005
0.16624999 0.19028381 0.71100003
0.16841434 0.19054547 0.71200001
0.17082335 0.19107483 0.71400005
0.17275923 0.19106905 0.71400005
0.17469506 0.19106333 0.71400005
0.17663087 0.19105771 0.71400005
0.17906682 0.19158733 0.71600002
0.18176642 0.19238462 0.71900004
0.18371573 0.19237925 0.71900004
0.18359923 0.19023356 0.71100003
0.18082994 0.18541256 0.69300002
-0.18278132 0.20238541 0.76400006
-0.17172171 0.19232517 0.72600001
-0.1674151 0.18968217 0.71600002
-0.16154489 0.18518455 0.69900006
-0.15850751 0.18386589 0.69400001
-0.15752839 0.18493176 0.69800001
-0.15518963 0.18440804 0.69600004
-0.15704663 0.18891862 0.71300006
-0.15815866 0.19263461 0.72700006
-0.158765 0.19582094 0.73900002
-0.15273024 0.19079286 0.72000003
-0.15035847 0.19026944 0.71800005
-0.14758404 0.18921599 0.71400005
-0.14564714 0.18922257 0.71400005
-0.14350884 0.18896413 0.71300006
-0.14177299 0.18923579 0.71400005
-0.1398357 0.18924241 0.71400005
-0.13770518 0.18898399 0.71300006
-0.13557993 0.18872555 0.71200001
-0.13346 0.1884671 0.71100003
-0.13153033 0.18847372 0.71100003
-0.12960054 0.18848032 0.71100003
-0.1276706 0.18848693 0.71100003
-0.1253868 0.18796331 0.70900005
-0.12328786 0.18770471 0.708
-0.12119419 0.18744609 0.70700002
-0.11927453 0.18745257 0.70700002
-0.11685675 0.18666361 0.70400006
-0.11478164 0.18640482 0.70300001
-0.11287236 0.18641117 0.70300001
-0.11080512 0.18615229 0.70200002
-0.108588 0.18562819 0.70000005
-0.1063816 0.185104 0.69800001
-0.10448529 0.18511012 0.69800001
-0.10273582 0.18538143 0.69900006
-0.10098075 0.18565269 0.70000005
-0.099078551 0.18565863 0.70000005
-0.097037368 0.18539932 0.69900006
-0.095001467 0.18513992 0.69800001
-0.092704087 0.18434994 0.69500005
-0.090814866 0.18435562 0.69500005
-0.088925496 0.18436125 0.69500005
-0.087035976 0.18436676 0.69500005
-0.085146293 0.1843722 0.69500005
-0.08313667 0.1841123 0.69400001
-0.081015274 0.18358697 0.69200003
-0.079018965 0.18332684 0.69100004
-0.077139594 0.18333195 0.69100004
-0.075042233 0.18280628 0.68900001
-0.072849438 0.18201523 0.68600005
-0.070879772 0.18175466 0.68500006
-0.069116905 0.18202466 0.68600005
-0.067250453 0.18202926 0.68600005
-0.065097913 0.18123765 0.68300003
-0.06314677 0.18097667 0.68200004
-0.061200943 0.18071555 0.68100005
-0.059347577 0.18071967 0.68100005
-0.057409678 0.18045834 0.68000001
-0.055313691 0.1796661 0.67700005
-0.053391885 0.17940448 0.67600006
-0.051322892 0.17861198 0.67300004
-0.049417209 0.17835011 0.67200005
-0.047587682 0.17835353 0.67200005
-0.045689948 0.17809142 0.671
-0.043797582 0.17782921 0.67000002
-0.041847914 0.17730142 0.66800004
-0.040028896 0.17730434 0.66800004
-0.03815259 0.17704172 0.66700006
-0.036281649 0.17677897 0.66600001
-0.034467824 0.17678151 0.66600001
-0.032604907 0.17651851 0.66500002
-0.030839967 0.17678624 0.66600001
-0.028982351 0.17652299 0.66500002
-0.027252693 0.17705594 0.66700006
-0.025435811 0.17705786 0.66700006
-0.023654284 0.17732513 0.66800004
-0.02176919 0.17679587 0.66600001
-0.019954871 0.1767974 0.66600001
-0.018140508 0.17679882 0.66600001
-0.016350619 0.17706557 0.66700006
-0.014533453 0.1770667 0.66700006
-0.012716254 0.17706771 0.66700006
-0.010915368 0.17733406 0.66800004
-0.0090953913 0.17733479 0.66800004
-0.0072862846 0.17760088 0.66900003
-0.0054798787 0.17813227 0.671
-0.0036571212 0.1783981 0.67200005
-0.0018261881 0.17839831 0.67200005
4.7423746e-06 0.17813289 0.671
0.0018329551 0.17813283 0.671
0.0036720764 0.17866357 0.67300004
0.0055139065 0.17892869 0.67400002
0.0073611732 0.17919371 0.67500001
0.0091866124 0.17892762 0.67400002
0.011072 0.17972328 0.67700005
0.012916471 0.1797224 0.67700005
0.014804522 0.1802523 0.67900002
0.016629852 0.17998567 0.67800003
0.018449696 0.17971893 0.67700005
0.020294026 0.1797175 0.67700005
0.022203712 0.18024684 0.67900002
0.024088815 0.18051058 0.68000001
0.026017468 0.18103968 0.68200004
0.027834339 0.18077226 0.68100005
0.029645698 0.18050471 0.68000001
0.031451546 0.18023704 0.67900002
0.033349965 0.18050012 0.68000001
0.035305526 0.18102852 0.68200004
0.037162919 0.18102589 0.68200004
0.039020233 0.18102315 0.68200004
0.040757585 0.18048945 0.68000001
0.042609278 0.18048644 0.68000001
0.044395499 0.18021791 0.67900002
0.046244286 0.18021469 0.67900002
0.048092976 0.18021135 0.67900002
0.04986801 0.1799425 0.67800003
0.051713768 0.17993894 0.67800003
0.053559419 0.17993525 0.67800003
0.055323254 0.17966609 0.67700005
0.057081521 0.17939681 0.67600006
0.058834221 0.17912741 0.67500001
0.060671248 0.17912331 0.67500001
0.062508158 0.17911911 0.67500001
0.06424962 0.17884943 0.67400002
0.066083565 0.17884505 0.67400002
0.067816608 0.17857519 0.67300004
0.069854543 0.17910126 0.67500001
0.071690813 0.17909656 0.67500001
0.073526949 0.17909177 0.67500001
0.075251304 0.17882156 0.67400002
0.077084444 0.17881662 0.67400002
0.079034537 0.17907687 0.67500001
0.080989927 0.17933704 0.67600006
0.08270555 0.17906651 0.67500001
0.084415607 0.17879593 0.67400002
0.085992105 0.17826003 0.67200005
0.087557584 0.17772409 0.67000002
0.089245453 0.17745337 0.66900003
0.091336094 0.17797834 0.671
0.093298629 0.17823796 0.67200005
0.094983324 0.17796703 0.671
0.096662439 0.17769608 0.67000002
0.098629959 0.17795551 0.671
0.10060276 0.17821489 0.67200005
0.10242843 0.17820898 0.67200005
0.10425395 0.17820305 0.67200005
0.10607931 0.17819704 0.67200005
0.1080651 0.17845617 0.67300004
0.11038277 0.17924558 0.67600006
0.11221854 0.17923945 0.67600006
0.11422292 0.17949842 0.67700005
0.11606113 0.17949221 0.67700005
0.11842165 0.18028131 0.68000001
0.12062146 0.18080528 0.68200004
0.12229324 0.18053387 0.68100005
0.12450634 0.18105774 0.68300003
0.12673017 0.18158156 0.68500006
0.12896471 0.18210533 0.68700004
0.13120995 0.18262903 0.68900001
0.13307963 0.18262266 0.68900001
0.13534093 0.18314634 0.69100004
0.13741437 0.18340495 0.69200003
0.13989569 0.18419363 0.69500005
0.14218915 0.18471724 0.69700003
0.14449339 0.18524083 0.69900006
0.14659888 0.18549941 0.70000005
0.14849758 0.18549301 0.70000005
0.15061103 0.18575165 0.70100003
0.15251225 0.18574531 0.70100003
0.15463363 0.186004 0.70200002
0.15676035 0.18626268 0.70300001
0.1591181 0.18678637 0.70500004
0.16148664 0.18731005 0.70700002
0.16340367 0.18730392 0.70700002
0.16602218 0.18809263 0.71000004
0.16794722 0.18808658 0.71000004
0.17035075 0.18861046 0.71200001
0.1722811 0.18860456 0.71200001
0.17445612 0.18886365 0.71300006
0.17614171 0.18859303 0.71200001
0.17857216 0.18911716 0.71400005
0.18076065 0.18937649 0.71500003
0.18321003 0.18990074 0.71700001
0.18489559 0.18963055 0.71600002
0.18501006 0.18777145 0.70900005
0.18113169 0.18194006 0.68700004
-0.1766322 0.18718791 0.71400005
-0.17445189 0.18693157 0.71300006
-0.17561021 0.19244954 0.73400003
-0.17149137 0.19009596 0.72500002
-0.16531679 0.18538244 0.70700002
-0.15831532 0.17961979 0.68500006
-0.15257506 0.17516795 0.66800004
-0.152795 0.177534 0.67700005
-0.15764865 0.18540742 0.70700002
-0.16145846 0.19223243 0.73300004
-0.1605584 0.19355041 0.73800004
-0.15791234 0.19277032 0.73500001
-0.1518883 0.18779376 0.71600002
-0.14973682 0.18753806 0.71500003
-0.14738393 0.18702012 0.71300006
-0.14565375 0.18728907 0.71400005
-0.1433142 0.18677109 0.71200001
-0.14118391 0.18651542 0.71100003
-0.13886309 0.18599743 0.70900005
-0.13693927 0.18600409 0.70900005
-0.13501531 0.18601075 0.70900005
-0.13290349 0.18575504 0.708
-0.13116698 0.18602407 0.70900005
-0.12906028 0.18576832 0.708
-0.12731807 0.18603733 0.70900005
-0.12486281 0.18525675 0.70600003
-0.12277199 0.1850009 0.70500004
-0.12068643 0.18474501 0.70400006
-0.1187749 0.18475154 0.70400006
-0.11669716 0.18449555 0.70300001
-0.11462474 0.18423954 0.70200002
-0.11271815 0.18424591 0.70200002
-0.1104957 0.18372732 0.70000005
-0.1084391 0.18347116 0.69900006
-0.10638776 0.18321486 0.69800001
-0.10449141 0.18322106 0.69800001
-0.1027419 0.18348968 0.69900006
-0.10084251 0.18349573 0.69900006
-0.09894298 0.18350175 0.69900006
-0.096904427 0.18324515 0.69800001
-0.094735079 0.18272597 0.69600004
-0.092709824 0.18246922 0.69500005
-0.090820529 0.18247493 0.69500005
-0.089059032 0.18274313 0.69600004
-0.086916238 0.18222356 0.69400001
-0.085151725 0.1824916 0.69500005
-0.082902417 0.18170924 0.69200003
-0.080786362 0.18118937 0.69000006
-0.078681029 0.18066937 0.68800002
-0.077032998 0.18119965 0.69000006
-0.074938267 0.18067946 0.68800002
-0.072854273 0.18015911 0.68600005
-0.070781015 0.17963865 0.68400002
-0.068920031 0.17964333 0.68400002
-0.067058913 0.17964794 0.68400002
-0.064911701 0.17886446 0.68100005
-0.062965885 0.17860618 0.68000001
-0.061115261 0.17861044 0.68000001
-0.059177361 0.17835192 0.67900002
-0.057329219 0.17835596 0.67900002
-0.055235829 0.17757188 0.67600006
-0.053237639 0.17705028 0.67400002
-0.051250234 0.17652857 0.67200005
-0.049347147 0.17626941 0.671
-0.047520224 0.17627285 0.671
-0.045625109 0.17601347 0.67000002
-0.0438007 0.17601664 0.67000002
-0.04185091 0.17549431 0.66800004
-0.039971843 0.17523453 0.66700006
-0.03815534 0.17523733 0.66700006
-0.036338754 0.17524002 0.66700006
-0.03452209 0.17524262 0.66700006
-0.032607276 0.17471956 0.66500002
-0.030795908 0.17472188 0.66500002
-0.028897298 0.17419858 0.66300005
-0.027172966 0.17472614 0.66500002
-0.025361404 0.17472807 0.66500002
-0.023585193 0.17499259 0.66600001
-0.021770794 0.17499427 0.66600001
-0.019986309 0.17525858 0.66700006
-0.01816909 0.17525999 0.66700006
-0.01635183 0.17526127 0.66700006
-0.014512739 0.17499965 0.66600001
-0.012717198 0.17526343 0.66700006
-0.010899836 0.17526433 0.66700006
-0.0090960665 0.1755278 0.66800004
-0.0072868271 0.1757912 0.66900003
-0.0054721194 0.17605442 0.67000002
-0.0036573939 0.17658032 0.67200005
-0.001823606 0.17631774 0.671
4.7427279e-06 0.17631781 0.671
0.0018330915 0.17631774 0.671
0.0036668933 0.17658032 0.67200005
0.0055061355 0.17684273 0.67300004
0.0073508136 0.17710501 0.67400002
0.0091872942 0.1771044 0.67400002
0.011040109 0.17736641 0.67500001
0.012879268 0.17736553 0.67500001
0.014740203 0.17762728 0.67600006
0.016582023 0.1776261 0.67600006
0.018423805 0.17762482 0.67600006
0.020295523 0.17788614 0.67700005
0.022172643 0.17814733 0.67800003
0.024090588 0.17867112 0.68000001
0.025981227 0.17893203 0.68100005
0.027795499 0.17866731 0.68000001
0.029647864 0.17866521 0.68000001
0.031453837 0.17840022 0.67900002
0.033303343 0.17839786 0.67900002
0.035256311 0.17892085 0.68100005
0.037111111 0.17891821 0.68100005
0.039023045 0.17917819 0.68200004
0.04076051 0.17864986 0.68000001
0.04254967 0.17838417 0.67900002
0.044333283 0.17811835 0.67800003
0.046179462 0.17811511 0.67800003
0.047954716 0.17784905 0.67700005
0.049724419 0.17758289 0.67600006
0.051564846 0.17757933 0.67600006
0.053405166 0.17757563 0.67600006
0.055245381 0.17757185 0.67600006
0.057085473 0.17756793 0.67600006
0.059012614 0.17782655 0.67700005
0.060855195 0.17782244 0.67700005
0.062697649 0.17781821 0.67700005
0.064444654 0.17755121 0.67600006
0.066088028 0.17702147 0.67400002
0.067921937 0.17701696 0.67400002
0.069755718 0.17701234 0.67400002
0.071695574 0.17727023 0.67500001
0.073422872 0.17700282 0.67400002
0.075144581 0.17673528 0.67300004
0.076860711 0.17646772 0.67200005
0.078805462 0.17672525 0.67300004
0.080755502 0.17698269 0.67400002
0.08246576 0.17671487 0.67300004
0.084170438 0.17644699 0.67200005
0.085869536 0.17617902 0.671
0.087563045 0.17591105 0.67000002
0.089250982 0.17564301 0.66900003
0.09120556 0.17589995 0.67000002
0.093304306 0.17641939 0.67200005
0.095130615 0.17641367 0.67200005
0.096956782 0.17640789 0.67200005
0.098782793 0.17640206 0.67200005
0.10060865 0.17639616 0.67200005
0.10243438 0.17639023 0.67200005
0.10441508 0.17664674 0.67300004
0.10592747 0.17611574 0.671
0.1079106 0.17637213 0.67200005
0.10989901 0.17662849 0.67300004
0.11205871 0.17714719 0.67500001
0.11406041 0.17740344 0.67600006
0.11572448 0.17713475 0.67500001
0.11807964 0.17791574 0.67800003
0.12027404 0.17843421 0.68000001
0.12211999 0.17842788 0.68000001
0.12414811 0.17868391 0.68100005
0.12655154 0.17946464 0.68400002
0.12878338 0.17998296 0.68600005
0.13121639 0.18076359 0.68900001
0.13327925 0.18101947 0.69000006
0.13554326 0.18153764 0.69200003
0.1374208 0.18153115 0.69200003
0.13949955 0.18178698 0.69300002
0.1417876 0.18230516 0.69500005
0.14408638 0.18282326 0.69700003
0.14597704 0.1828168 0.69700003
0.14765541 0.18254809 0.69600004
0.14975798 0.18280394 0.69700003
0.15208344 0.1833221 0.69900006
0.15441966 0.18384027 0.70100003
0.15654363 0.18409616 0.70200002
0.15867291 0.1843521 0.70300001
0.16126442 0.18513255 0.70600003
0.16340983 0.18538857 0.70700002
0.16556057 0.18564461 0.708
0.16771671 0.18590072 0.70900005
0.17011744 0.18641905 0.71100003
0.17228699 0.18667527 0.71200001
0.17446193 0.18693155 0.71300006
0.17639485 0.18692572 0.71300006
0.17832772 0.18691997 0.71300006
0.1807662 0.18743864 0.71500003
0.18270445 0.18743309 0.71500003
0.18438445 0.18716548 0.71400005
0.18605903 0.18689804 0.71300006
0.18561889 0.18453375 0.70400006
-0.19167823 0.1885917 0.72700006
-0.16483453 0.16915596 0.65200001
-0.16931972 0.17564747 0.67700005
-0.1679793 0.17617191 0.67900002
-0.16638333 0.17643704 0.68000001
-0.16695964 0.17903753 0.69000006
-0.16413203 0.17800549 0.68600005
-0.16818593 0.1844987 0.71100003
-0.16602448 0.18424544 0.71000004
-0.15577897 0.17490937 0.67400002
-0.15029687 0.17076309 0.65800005
-0.15099545 0.17362382 0.66900003
-0.15497917 0.18037783 0.69500005
-0.16080432 0.18946826 0.73000002
-0.15773678 0.18817721 0.72500002
-0.15469629 0.1868861 0.72000003
-0.15125851 0.18507579 0.71300006
-0.14953405 0.18534204 0.71400005
-0.14739059 0.18508916 0.71300006
-0.14545645 0.18509585 0.71300006
-0.14311959 0.18458335 0.71100003
-0.14079344 0.18407084 0.70900005
-0.13867389 0.18381791 0.708
-0.1367528 0.18382461 0.708
-0.13483155 0.18383133 0.708
-0.13291018 0.18383804 0.708
-0.13080364 0.18358509 0.70700002
-0.12888466 0.18359177 0.70700002
-0.12678598 0.18333876 0.70600003
-0.12469254 0.18308569 0.70500004
-0.12260441 0.18283261 0.70400006
-0.12069298 0.18283918 0.70400006
-0.11861266 0.18258598 0.70300001
-0.11653763 0.18233277 0.70200002
-0.11430459 0.18181978 0.70000005
-0.11224281 0.18156643 0.69900006
-0.11034418 0.18157279 0.69900006
-0.10844537 0.1815791 0.69900006
-0.10639398 0.18132558 0.69800001
-0.10419816 0.18081221 0.69600004
-0.10245403 0.18107817 0.69700003
-0.10056001 0.18108423 0.69700003
-0.098807409 0.18135007 0.69800001
-0.096771516 0.18109624 0.69700003
-0.094604798 0.18058248 0.69500005
-0.092582174 0.18032843 0.69400001
-0.090695538 0.18033418 0.69400001
-0.088808715 0.18033983 0.69400001
-0.086796515 0.18008555 0.69300002
-0.084789589 0.17983118 0.69200003
-0.082548335 0.17905694 0.68900001
-0.080440342 0.17854246 0.68700004
-0.078686178 0.17880759 0.68800002
-0.07703808 0.17933249 0.69000006
-0.075052157 0.17907761 0.68900001
-0.07275293 0.1780429 0.68500006
-0.070785768 0.1777878 0.68400002
-0.068823919 0.17753255 0.68300003
-0.066965416 0.17753717 0.68300003
-0.064820811 0.17676184 0.68000001
-0.062877603 0.17650627 0.67900002
-0.061029598 0.17651054 0.67900002
-0.05918147 0.1765147 0.67900002
-0.057164334 0.17599882 0.67700005
-0.055076264 0.17522283 0.67400002
-0.053083401 0.17470668 0.67200005
-0.051101305 0.17419037 0.67000002
-0.049203549 0.17393394 0.66900003
-0.04738196 0.1739374 0.66900003
-0.045628358 0.17420068 0.67000002
-0.043803841 0.17420389 0.67000002
-0.041916575 0.17394698 0.66900003
-0.040034659 0.17368992 0.66800004
-0.038215309 0.17369275 0.66800004
-0.036341392 0.17343543 0.66700006
-0.034472834 0.17317797 0.66600001
-0.032560617 0.17266037 0.66400003
-0.030705538 0.17240267 0.66300005
-0.028855829 0.17214479 0.66200006
-0.0271341 0.17266694 0.66400003
-0.025325129 0.17266886 0.66400003
-0.023516102 0.17267066 0.66400003
-0.021707019 0.17267233 0.66400003
-0.019897887 0.17267388 0.66400003
-0.018143194 0.17319539 0.66600001
-0.016304007 0.17293662 0.66500002
-0.01453561 0.17345789 0.66700006
-0.012718145 0.1734589 0.66700006
-0.010900647 0.17345978 0.66700006
-0.0090831276 0.17346054 0.66700006
-0.0072764768 0.17372119 0.66800004
-0.0054725274 0.1742418 0.67000002
-0.0036522234 0.17450221 0.671
-0.0018210243 0.17424235 0.67000002
4.7360136e-06 0.17424241 0.67000002
0.0018277643 0.17398229 0.66900003
0.0036617094 0.17450221 0.671
0.0054983641 0.17476192 0.67200005
0.0073404554 0.1750215 0.67300004
0.0091879806 0.17528096 0.67400002
0.011040933 0.17554025 0.67500001
0.012880226 0.17553934 0.67500001
0.014741299 0.1757984 0.67600006
0.016607786 0.17605729 0.67700005
0.018479683 0.17631602 0.67800003
0.020327006 0.17631459 0.67800003
0.022206988 0.17657307 0.67900002
0.024092367 0.17683138 0.68000001
0.025983142 0.1770896 0.68100005
0.027797543 0.17682758 0.68000001
0.029606435 0.17656541 0.67900002
0.031409811 0.17630316 0.67800003
0.033256721 0.17630079 0.67800003
0.035155326 0.17655833 0.67900002
0.037059303 0.1768157 0.68000001
0.038968649 0.177073 0.68100005
0.040763449 0.17681007 0.68000001
0.042552724 0.17654707 0.67900002
0.044336457 0.17628394 0.67800003
0.046182763 0.17628069 0.67800003
0.048028961 0.17627734 0.67800003
0.049801499 0.17601386 0.67700005
0.051644765 0.17601027 0.67700005
0.053408924 0.17574659 0.67600006
0.055167515 0.17548278 0.67500001
0.057004992 0.17547886 0.67500001
0.058929536 0.1757348 0.67600006
0.060859393 0.17599061 0.67700005
0.062701955 0.17598635 0.67700005
0.064449057 0.17572205 0.67600006
0.065994456 0.17493778 0.67300004
0.067825742 0.17493322 0.67300004
0.069656901 0.17492862 0.67300004
0.071487911 0.17492387 0.67300004
0.073209852 0.17465915 0.67200005
0.074926205 0.17439432 0.671
0.076751359 0.17438932 0.671
0.078576371 0.17438425 0.671
0.080401234 0.17437908 0.671
0.082103424 0.17411397 0.67000002
0.08392527 0.17410867 0.67000002
