# .PCD v0.7 - Point Cloud Data file format
VERSION 0.7
FIELDS x y z normal_x normal_y normal_z curvature
SIZE 4 4 4 4 4 4 4
TYPE F F F F F F F
COUNT 1 1 1 1 1 1 1
WIDTH 593
HEIGHT 1
VIEWPOINT 0 0 0 1 0 0 0
POINTS 593
DATA ascii
4.8698003e-06 -0.14561467 0.68800002 -0.91802639 0.16798067 -0.35917959 0.0072103962
0.0018685268 -0.14455636 0.68300003 -0.91486067 0.16718696 -0.36753017 0.0064477855
0.0037048913 -0.14349788 0.67800003 -0.90886748 0.16254251 -0.38410923 0.0054233754
0.0055139591 -0.14243932 0.67300004 -0.9072513 0.15369336 -0.39150146 0.0043441709
0.0072957235 -0.14138059 0.66800004 -0.90276647 0.14366888 -0.40542802 0.0038656311
0.0090774819 -0.14074506 0.66500002 -0.8936038 0.14242671 -0.42566043 0.0036899836
0.010826464 -0.13989772 0.66100001 -0.88080591 0.13941845 -0.45248574 0.0037769673
0.012591802 -0.13947357 0.65900004 -0.8698892 0.13891271 -0.47328222 0.0045803753
0.014302517 -0.13862601 0.65500003 -0.85383111 0.13604392 -0.50245845 0.0057802065
0.016040493 -0.13820158 0.65300006 -0.84442431 0.13928115 -0.51725078 0.0060049039
0.017712925 -0.13735378 0.64900005 -0.82504153 0.13715862 -0.54817337 0.0062060375
0.01942352 -0.13692912 0.64700001 -0.81220102 0.14138716 -0.56598508 0.0060001952
0.02112315 -0.13650437 0.64500004 -0.79923773 0.14582412 -0.58305609 0.006009174
0.022776328 -0.13586785 0.64200002 -0.77376175 0.15049474 -0.61534065 0.0063960929
0.024451282 -0.13544285 0.64000005 -0.75798994 0.15451264 -0.63370115 0.0070216721
0.026074316 -0.13480611 0.63700002 -0.73410392 0.16077571 -0.65972924 0.0081490772
0.027768238 -0.1345925 0.63600004 -0.71271628 0.16884302 -0.68082845 0.0090704486
0.029456623 -0.13437879 0.63500005 -0.69619173 0.17470641 -0.69627202 0.010518862
0.031188587 -0.13437659 0.63500005 -0.68789858 0.18042894 -0.70302272 0.010486565
0.032816779 -0.13395101 0.63300002 -0.67000377 0.18943329 -0.71778125 0.01086092
0.034433968 -0.13352536 0.63100004 -0.65458 0.2017975 -0.72856218 0.010319472
0.035982862 -0.13288797 0.62800002 -0.6444391 0.20488805 -0.73669469 0.0088071972
0.037635334 -0.13267371 0.62700003 -0.63749522 0.21002366 -0.74127591 0.0084951306
0.039156757 -0.13203615 0.62400001 -0.64772189 0.20989829 -0.73239273 0.0099585978
0.040792659 -0.13182168 0.62300003 -0.65380538 0.21034172 -0.72683901 0.010664761
0.0423548 -0.13139552 0.62100005 -0.67674226 0.20590539 -0.7068401 0.013465144
0.04411871 -0.131604 0.62200004 -0.67821324 0.20531923 -0.70559967 0.013857773
0.045666989 -0.13117766 0.62 -0.71016413 0.1985562 -0.67545724 0.016817804
0.047433391 -0.13138594 0.62100005 -0.71197581 0.19760431 -0.67382717 0.016797604
0.04896779 -0.13095938 0.61900002 -0.73446614 0.19301313 -0.65061927 0.017274883
0.050654821 -0.13095586 0.61900002 -0.74666178 0.19196488 -0.63690317 0.017333085
0.052341722 -0.13095224 0.61900002 -0.75706553 0.18684474 -0.62605178 0.017672857
0.054028485 -0.13094851 0.61900002 -0.76719981 0.18482937 -0.61420065 0.017695168
0.055355076 -0.13009854 0.61500001 -0.79687572 0.18222666 -0.57600576 0.015750185
0.056474268 -0.12882543 0.60900003 -0.82739019 0.1820354 -0.53130847 0.012213459
0.057656076 -0.12776381 0.60400003 -0.83930361 0.179901 -0.51303518 0.0098217856
0.05910505 -0.12733676 0.60200006 -0.8441329 0.18013997 -0.50496471 0.0094330562
0.060442064 -0.12669811 0.59900004 -0.84615362 0.1766534 -0.50280982 0.0090524312
0.061762583 -0.12605938 0.59600002 -0.83622789 0.18141815 -0.51750386 0.010646072
0.063172974 -0.12563217 0.59400004 -0.81747824 0.19149607 -0.54319304 0.011863663
0.064681381 -0.12541634 0.59300005 -0.79696876 0.19898841 -0.57030189 0.011960557
0.066072389 -0.12498897 0.59100002 -0.76916862 0.20515977 -0.60521829 0.009433357
0.067566872 -0.12477303 0.59000003 -0.75392014 0.21219334 -0.62175423 0.0076556732
0.068821266 -0.12413407 0.58700001 -0.73526895 0.21717195 -0.64204037 0.005306568
0.070299096 -0.12391802 0.58600003 -0.72877502 0.22011492 -0.64841074 0.0049062693
0.071771316 -0.1237019 0.58500004 -0.71913958 0.22418579 -0.65770739 0.0049247504
0.073363341 -0.12369717 0.58500004 -0.71279329 0.22756906 -0.6634289 0.0050774333
0.074698932 -0.12326947 0.583 -0.70239216 0.23104085 -0.67324984 0.0051064566
0.076285169 -0.12326461 0.583 -0.69461483 0.23384579 -0.68031359 0.0048223906
0.077604115 -0.12283684 0.58100003 -0.68212217 0.23632218 -0.691998 0.0045539388
0.078775696 -0.12219761 0.57800001 -0.6711517 0.24173473 -0.70079941 0.0049990835
0.079930805 -0.12155838 0.57500005 -0.66192818 0.24529637 -0.70829421 0.0055173142
0.081352867 -0.12134191 0.574 -0.65504116 0.24952342 -0.71320343 0.0054979292
0.083058223 -0.1215482 0.57500005 -0.65102214 0.25110185 -0.71632254 0.0051412364
0.084474504 -0.12133162 0.574 -0.64486599 0.25314277 -0.72115636 0.0053143688
0.086035065 -0.1213264 0.574 -0.63910955 0.25526544 -0.72551942 0.0055281548
0.08729025 -0.12089841 0.57200003 -0.62964016 0.25831524 -0.73268455 0.005324583
0.088689692 -0.12068174 0.57100004 -0.62360436 0.2615166 -0.73669988 0.0048533529
0.090083547 -0.12046504 0.57000005 -0.61414051 0.26449177 -0.74355608 0.0053386586
0.091311015 -0.12003698 0.56800002 -0.60463047 0.26809213 -0.75003237 0.0058993883
0.092854403 -0.12003156 0.56800002 -0.5974533 0.26920974 -0.75536454 0.007172911
0.094231419 -0.11981478 0.56700003 -0.58855069 0.27333906 -0.76085067 0.0075125648
0.095771745 -0.11980929 0.56700003 -0.58180028 0.27507246 -0.76540422 0.0076981909
0.096968621 -0.11938116 0.565 -0.56371242 0.28093892 -0.77672499 0.0085637141
0.098328829 -0.11916433 0.56400001 -0.55267066 0.28553599 -0.78295869 0.010093111
0.099506371 -0.11873621 0.56200004 -0.53592759 0.29121107 -0.79245043 0.009742951
0.10103244 -0.11873063 0.56200004 -0.52708274 0.29237667 -0.79793465 0.0094065079
0.10182837 -0.11788 0.55800003 -0.50986558 0.29814249 -0.80693758 0.0086321281
0.10352843 -0.11808565 0.55900002 -0.50301582 0.29772156 -0.81137961 0.0083997939
0.10467 -0.11765755 0.55700004 -0.49152189 0.29828322 -0.81818902 0.0091912989
0.10637245 -0.11786315 0.55800003 -0.48322091 0.29870874 -0.82296455 0.0087530483
0.10788682 -0.11785749 0.55800003 -0.47334513 0.29757807 -0.82909089 0.0090616131
0.10959709 -0.11806302 0.55900002 -0.46610796 0.29819289 -0.8329612 0.0090537742
0.11111384 -0.1180573 0.55900002 -0.45612511 0.2988123 -0.83824873 0.0087041892
0.1122275 -0.11762924 0.55700004 -0.44446325 0.29820848 -0.84470367 0.0095257806
0.11333012 -0.11720119 0.55500001 -0.43314096 0.3014172 -0.84943306 0.010598763
0.11421484 -0.11656202 0.55200005 -0.42030218 0.30511022 -0.85454881 0.010927608
0.115712 -0.11655638 0.55200005 -0.41182718 0.30492324 -0.85873169 0.011522054
0.11720903 -0.11655072 0.55200005 -0.40159494 0.3033188 -0.86412919 0.011813167
0.11913598 -0.11696734 0.55400002 -0.39519626 0.30095997 -0.86789572 0.011285247
0.1204204 -0.11675057 0.55300003 -0.3827706 0.30222091 -0.87301159 0.011476276
0.12169924 -0.11653382 0.55200005 -0.36939472 0.30000541 -0.87951374 0.01080463
0.12319571 -0.11652818 0.55200005 -0.35743752 0.29869273 -0.88488483 0.011328158
0.12469205 -0.11652257 0.55200005 -0.34321299 0.29775742 -0.89081162 0.011250363
0.12595965 -0.11630589 0.551 -0.32516125 0.29617801 -0.89808059 0.011921764
0.12699041 -0.11587819 0.54900002 -0.30596066 0.29441759 -0.90537637 0.012088792
0.12847824 -0.11587267 0.54900002 -0.2899732 0.29270038 -0.91117609 0.012569644
0.12972924 -0.11565614 0.54800004 -0.27375025 0.29323459 -0.91601002 0.014387454
0.13121416 -0.11565068 0.54800004 -0.25720793 0.29411805 -0.92050999 0.014734867
0.13245682 -0.11543423 0.54700005 -0.24044442 0.29216492 -0.92564905 0.01462134
0.13369395 -0.11521783 0.546 -0.22295213 0.29144853 -0.93024194 0.014320855
0.13517313 -0.11521249 0.546 -0.20771424 0.28955963 -0.93435007 0.014853715
0.13690253 -0.11541823 0.54700005 -0.18791434 0.28852198 -0.93885213 0.015111776
0.13863723 -0.11562394 0.54800004 -0.17053813 0.2858035 -0.94299155 0.015758296
0.14012158 -0.11561873 0.54800004 -0.15365833 0.28680554 -0.94558537 0.016351571
0.14134745 -0.11540259 0.54700005 -0.14014918 0.28588444 -0.94796008 0.016319223
0.14230675 -0.11497555 0.54500002 -0.12711503 0.28619713 -0.94970155 0.015989866
0.14351895 -0.11475956 0.54400003 -0.10999618 0.2869902 -0.95159733 0.01529624
0.14499222 -0.1147546 0.54400003 -0.094012879 0.28678119 -0.953372 0.014961077
0.14646544 -0.1147497 0.54400003 -0.074579582 0.28524423 -0.95554888 0.013940394
0.14793862 -0.11474486 0.54400003 -0.055292819 0.28292304 -0.95754755 0.015178223
0.14941175 -0.1147401 0.54400003 -0.038254723 0.28182271 -0.95870352 0.014680656
0.15088485 -0.11473539 0.54400003 -0.01626295 0.2818276 -0.95932722 0.014834733
0.15263802 -0.11494168 0.54500002 0.0063682562 0.28045353 -0.9598465 0.014428418
0.15439659 -0.11514802 0.546 0.032973234 0.27783445 -0.96006286 0.013678334
0.15558957 -0.11493266 0.54500002 0.050050493 0.2765466 -0.95969629 0.0129946
0.15677716 -0.1147174 0.54400003 0.062760413 0.27564731 -0.95920783 0.012366041
0.15825024 -0.11471311 0.54400003 0.082575813 0.27433288 -0.95808285 0.012648365
0.16031054 -0.11513063 0.546 0.10812481 0.27181494 -0.95625609 0.011959364
0.16178907 -0.1151265 0.546 0.12938724 0.27020568 -0.95406902 0.011506243
0.16296862 -0.11491164 0.54500002 0.1407195 0.270197 -0.95246601 0.010711497
0.16444452 -0.11490774 0.54500002 0.15586241 0.26924151 -0.95037669 0.0099339215
0.16622493 -0.11511476 0.546 0.17383167 0.26670304 -0.9479726 0.010076503
0.16831794 -0.11553271 0.54800004 0.19569698 0.26511282 -0.94414932 0.010344565
0.16980216 -0.11552912 0.54800004 0.21271624 0.26578513 -0.94027126 0.011023455
0.17128645 -0.11552563 0.54800004 0.22903764 0.2647531 -0.93672174 0.011594853
0.17245555 -0.11531145 0.54700005 0.24095909 0.26270303 -0.93430501 0.011791638
0.17393732 -0.11530822 0.54700005 0.25822169 0.26259398 -0.92971283 0.011869254
0.17573988 -0.1155159 0.54800004 0.28052029 0.26209441 -0.92337149 0.011176104
0.17722459 -0.11551291 0.54800004 0.29695007 0.26319367 -0.91790509 0.010456491
0.17903554 -0.11572085 0.54900002 0.32244065 0.26465794 -0.90883893 0.012103143
0.18085207 -0.11592891 0.55000001 0.34884131 0.2628046 -0.89957958 0.012325598
0.18333723 -0.11655866 0.55300003 0.38582584 0.26617453 -0.88333994 0.012550057
0.18416756 -0.11613466 0.551 0.3893058 0.26648876 -0.88171697 0.012410341
0.18633512 -0.11655392 0.55300003 0.41855341 0.26623115 -0.86829376 0.011095609
0.18783432 -0.11655179 0.55300003 0.43339437 0.26943991 -0.85998338 0.011043929
0.19001848 -0.11697131 0.55500001 0.45902163 0.27004728 -0.84638858 0.010430417
0.19152355 -0.11696948 0.55500001 0.46768323 0.27261686 -0.84080458 0.0095665157
0.19407225 -0.11760008 0.55800003 0.49069217 0.27354965 -0.82727975 0.0077772774
0.19628692 -0.11802007 0.56 0.50762558 0.27674952 -0.81592029 0.0078593148
0.19780627 -0.11801875 0.56 0.51313579 0.27851194 -0.81186372 0.00783836
0.19968185 -0.11822836 0.56100005 0.52209276 0.28058311 -0.80541432 0.0088713225
0.20192178 -0.11864888 0.56300002 0.52993768 0.28569105 -0.79846519 0.009750355
0.20381148 -0.11885885 0.56400001 0.53584611 0.28735957 -0.79391015 0.010030956
0.20607102 -0.11927974 0.56600004 0.53984916 0.29039145 -0.79008579 0.010309133
0.20797494 -0.11949009 0.56700003 0.54229003 0.29716787 -0.78588343 0.010170599
0.21025416 -0.11991138 0.56900001 0.54467356 0.30168515 -0.78250676 0.010598452
0.2121724 -0.12012214 0.57000005 0.53689986 0.30434772 -0.78683603 0.010867056
0.21372151 -0.12012239 0.57000005 0.53120971 0.30675939 -0.7897563 0.010999312
0.21149427 -0.1180154 0.56 0.54124755 0.30160889 -0.78490973 0.010581254
-0.012502934 -0.12282567 0.57300001 0.94991428 -0.26187077 -0.17054792 0.057240311
-0.010538709 -0.11832505 0.55200005 0.85534495 -0.47292525 -0.21148732 0.050033513
-0.0077038761 -0.12111306 0.565 0.93973029 -0.2845971 -0.18950316 0.05346214
-0.0037495168 -0.14748073 0.68800002 -0.91407621 0.18507241 -0.36085033 0.0089419
-0.0018777692 -0.14790967 0.69000006 -0.91511732 0.18487167 -0.35830534 0.0094090998
4.8694369e-06 -0.14748101 0.68800002 -0.91442961 0.18129872 -0.36186919 0.008472953
0.0018683873 -0.14640914 0.68300003 -0.91208655 0.1770243 -0.36981145 0.0069412193
0.0036991513 -0.14512275 0.67700005 -0.90730035 0.16639398 -0.38615942 0.0052601467
0.0055053555 -0.14405061 0.67200005 -0.90457231 0.1591122 -0.39551502 0.0047158408
0.0072733383 -0.14276396 0.66600001 -0.8974207 0.14847107 -0.41544235 0.0037043265
0.0090631573 -0.14233464 0.66400003 -0.88997048 0.14731079 -0.43156937 0.0035747199
0.010792904 -0.1412621 0.65900004 -0.87293583 0.14602311 -0.46546781 0.004084121
0.012552653 -0.14083253 0.65700001 -0.8635062 0.14505647 -0.48302758 0.0049274634
0.014279622 -0.14018847 0.65400004 -0.8517769 0.14430799 -0.50363809 0.0057245838
0.016039304 -0.13997298 0.65300006 -0.84456372 0.14553215 -0.51529849 0.0056480612
0.017711613 -0.13911431 0.64900005 -0.82460922 0.15044607 -0.54533076 0.0055532153
0.019422084 -0.13868423 0.64700001 -0.81386435 0.15079007 -0.56114811 0.0056187557
0.021056097 -0.13782534 0.64300001 -0.79160696 0.15347064 -0.59144336 0.0059864819
0.022774648 -0.13760938 0.64200002 -0.77450895 0.15882327 -0.61229962 0.0059059099
0.024411278 -0.1369646 0.63900006 -0.75614309 0.16415839 -0.63348228 0.0071296962
0.026072398 -0.13653405 0.63700002 -0.73604727 0.1681294 -0.65571862 0.0074430653
0.027766198 -0.13631773 0.63600004 -0.71954155 0.17658462 -0.67162329 0.0088182101
0.029454464 -0.13610131 0.63500005 -0.70275259 0.18534745 -0.68686622 0.010261848
0.031186309 -0.13609909 0.63500005 -0.69308025 0.19078577 -0.69515496 0.010519999
0.032814384 -0.1356681 0.63300002 -0.67265224 0.20378762 -0.71134347 0.010631185
0.034431465 -0.13523701 0.63100004 -0.65674388 0.20940152 -0.72445732 0.0099558681
0.035922956 -0.13437717 0.62700003 -0.64229774 0.21692742 -0.73511636 0.0086214757
0.037572592 -0.13416018 0.62600005 -0.63879931 0.21921098 -0.73748356 0.0081257112
0.039216675 -0.13394308 0.625 -0.6427263 0.21852921 -0.73426688 0.0090268487
0.040855203 -0.1337259 0.62400001 -0.64944571 0.21972491 -0.7279706 0.010108737
0.042488165 -0.13350859 0.62300003 -0.66101819 0.22049899 -0.71724141 0.011732498
0.044186488 -0.13350549 0.62300003 -0.66957015 0.21665807 -0.71044707 0.01297402
0.045811042 -0.13328798 0.62200004 -0.68477988 0.21417181 -0.69656789 0.014857755
0.04735364 -0.13285609 0.62 -0.71639436 0.20930837 -0.66555929 0.017026702
0.049043421 -0.13285266 0.62 -0.72613794 0.2066664 -0.65575343 0.016997328
0.050651252 -0.13263486 0.61900002 -0.74177182 0.20172735 -0.63959414 0.017331773
0.052338049 -0.13263124 0.61900002 -0.75272322 0.2009069 -0.62693238 0.017433228
0.053937431 -0.13241325 0.61800003 -0.77056682 0.19499955 -0.60679638 0.016853193
0.055531234 -0.13219517 0.61700004 -0.78574634 0.19323516 -0.58759075 0.016797978
0.056655806 -0.13090575 0.611 -0.82034302 0.19056015 -0.53918844 0.013498818
0.057843003 -0.12983055 0.60600001 -0.83492988 0.18464392 -0.51845795 0.010787246
0.059100986 -0.12896958 0.60200006 -0.84279037 0.18519136 -0.50537974 0.009315921
0.060437933 -0.1283228 0.59900004 -0.84520012 0.18409684 -0.50174212 0.0087707974
0.061862003 -0.12789015 0.597 -0.84035271 0.18427677 -0.50975436 0.0098374709
0.063381374 -0.12767167 0.59600002 -0.83189273 0.18806052 -0.52209938 0.011139149
0.06489516 -0.12745313 0.59500003 -0.82085323 0.19223993 -0.53781396 0.011821521
0.066403344 -0.12723452 0.59400004 -0.80080426 0.20000301 -0.56454521 0.011635322
0.067791395 -0.12680162 0.59200001 -0.77082026 0.20926115 -0.60170245 0.009410169
0.069051184 -0.12615451 0.58900005 -0.7446062 0.21986 -0.63025641 0.0062641036
0.070294462 -0.12550735 0.58600003 -0.73076445 0.22389083 -0.64486915 0.0049903924
0.071766615 -0.12528852 0.58500004 -0.72377354 0.22656809 -0.65178126 0.0049911048
0.073358566 -0.12528378 0.58500004 -0.71585333 0.23107234 -0.65890783 0.0049997354
0.074950345 -0.12527896 0.58500004 -0.71080291 0.23312084 -0.66363674 0.005221399
0.076280281 -0.12484578 0.583 -0.69801515 0.2382938 -0.67527092 0.0054318975
0.07759916 -0.12441257 0.58100003 -0.6853624 0.24348104 -0.6862911 0.005104274
0.078770705 -0.1237652 0.57800001 -0.67218703 0.24948555 -0.69708079 0.0049482179
0.080064774 -0.12333193 0.57600003 -0.66414422 0.25354195 -0.70329869 0.0047369995
0.081489503 -0.12311275 0.57500005 -0.65731454 0.25551158 -0.70897919 0.0050802901
0.083197512 -0.12332172 0.57600003 -0.65540528 0.25595519 -0.71058488 0.0052257888
0.084322147 -0.12267425 0.57300001 -0.64437211 0.26201329 -0.71842432 0.0055540232
0.085879929 -0.12266903 0.57300001 -0.63761234 0.26306373 -0.72404969 0.005331954
0.086979769 -0.12202153 0.57000005 -0.62867689 0.26945442 -0.72949272 0.005453031
0.088373728 -0.12180214 0.56900001 -0.61990559 0.27232954 -0.73590326 0.0056252265
0.089762099 -0.12158275 0.56800002 -0.61076683 0.27551135 -0.74233234 0.0052629779
0.091305614 -0.12157736 0.56800002 -0.60584712 0.27860668 -0.74520302 0.0058858776
0.092685491 -0.12135791 0.56700003 -0.59654856 0.28206277 -0.75137895 0.0075573549
0.093893558 -0.12092438 0.565 -0.58601868 0.28638333 -0.75800186 0.00802135
0.095259517 -0.1207049 0.56400001 -0.57482392 0.28943524 -0.76537883 0.0089805992
0.096619867 -0.12048538 0.56300002 -0.56302786 0.29512066 -0.7719478 0.0096953586
0.098323278 -0.12069384 0.56400001 -0.55280912 0.29536474 -0.77920586 0.010558682
0.099677853 -0.12047428 0.56300002 -0.54013014 0.29929364 -0.78656393 0.010004767
0.10138635 -0.12068265 0.56400001 -0.53528601 0.29891172 -0.79001313 0.010091156
0.10237021 -0.12003512 0.56100005 -0.51829934 0.3043496 -0.79921031 0.0081820618
0.103708 -0.11981554 0.56 -0.50645798 0.3076548 -0.80551153 0.008389663
0.10504019 -0.11959594 0.55900002 -0.49551362 0.30956438 -0.81156397 0.0083230762
0.10655743 -0.1195903 0.55900002 -0.48654726 0.30879059 -0.81726372 0.0084861377
0.10807449 -0.11958462 0.55900002 -0.47598019 0.309095 -0.82334876 0.0088203279
0.10959139 -0.11957893 0.55900002 -0.46739674 0.3101525 -0.82785606 0.0089453729
0.11110815 -0.11957323 0.55900002 -0.45509228 0.31147149 -0.8341921 0.0084156115
0.11202033 -0.11892585 0.55600005 -0.44335797 0.31245703 -0.84012163 0.0089226505
0.11332443 -0.11870626 0.55500001 -0.43306497 0.31548429 -0.84434849 0.0098650083
0.11441609 -0.11827285 0.55300003 -0.4215723 0.31614891 -0.84989804 0.009744172
0.11612557 -0.11848105 0.55400002 -0.41325346 0.31530336 -0.85428649 0.010093777
0.1174157 -0.11826152 0.55300003 -0.40099287 0.31618875 -0.85978448 0.01084832
0.11913033 -0.11846972 0.55400002 -0.39344609 0.31337732 -0.86428857 0.010633807
0.12041475 -0.11825023 0.55300003 -0.38074225 0.31477779 -0.86945403 0.010433846
0.12191407 -0.11824457 0.55300003 -0.36971861 0.3144896 -0.87430227 0.010442532
0.12341327 -0.11823896 0.55300003 -0.3563123 0.31330225 -0.88027447 0.010745496
0.12491234 -0.11823336 0.55300003 -0.34138677 0.31189013 -0.88666773 0.010741013
0.12595408 -0.11780016 0.551 -0.32373983 0.31065544 -0.8936922 0.012266763
0.12698489 -0.11736706 0.54900002 -0.30638739 0.30945632 -0.90020192 0.013163082
0.12823875 -0.11714778 0.54800004 -0.28874514 0.31034705 -0.90571016 0.013777908
0.12972379 -0.1171423 0.54800004 -0.2717196 0.30891135 -0.91145056 0.01388705
0.13144815 -0.11735061 0.54900002 -0.25788033 0.30739507 -0.91597271 0.01402676
0.13269357 -0.11713146 0.54800004 -0.24013358 0.30591065 -0.92127877 0.014249613
0.13417831 -0.11712608 0.54800004 -0.2209751 0.30459401 -0.92649478 0.014148377
0.13541541 -0.11690703 0.54700005 -0.20672962 0.30225128 -0.93054128 0.014423748
0.13689727 -0.11690176 0.54700005 -0.18877678 0.30319467 -0.93404293 0.014845088
0.13888498 -0.11732391 0.54900002 -0.16858771 0.30349666 -0.93779957 0.015681108
0.14011641 -0.11710502 0.54800004 -0.15333977 0.30183557 -0.94094753 0.016491907
0.14134233 -0.11688618 0.54700005 -0.13931938 0.30060452 -0.9435184 0.016460381
0.14230169 -0.11645374 0.54500002 -0.12638231 0.30132931 -0.94510746 0.015815616
0.14377777 -0.11644874 0.54500002 -0.10945586 0.30091578 -0.94734854 0.015073446
0.14498729 -0.11623013 0.54400003 -0.093169801 0.30013844 -0.94933468 0.01452133
0.14646056 -0.11622526 0.54400003 -0.073470376 0.29876035 -0.95149589 0.01427311
0.14793384 -0.11622046 0.54400003 -0.053757269 0.29733607 -0.95325834 0.014599601
0.14940703 -0.11621571 0.54400003 -0.039307065 0.29650065 -0.95422345 0.014333615
0.15115756 -0.11642467 0.54500002 -0.014663863 0.2954208 -0.95525473 0.014361054
0.1529135 -0.11663369 0.546 0.0083841225 0.29430237 -0.9556756 0.013901522
0.15439206 -0.11662916 0.546 0.033706106 0.29127765 -0.95604455 0.012883426
0.15587065 -0.11662473 0.546 0.053989373 0.28782311 -0.95616055 0.012693847
0.15706103 -0.11640678 0.54500002 0.069655828 0.28663006 -0.95550573 0.012556887
0.15824601 -0.11618894 0.54400003 0.082881577 0.28505218 -0.95492196 0.012719065
0.16030639 -0.11661194 0.546 0.10834058 0.28378674 -0.95274729 0.011561538
0.16208135 -0.11682144 0.54700005 0.13324319 0.2837337 -0.9496007 0.011179239
0.16356273 -0.11681746 0.54700005 0.14874306 0.28230354 -0.94772369 0.010226508
0.16444068 -0.11638647 0.54500002 0.15696098 0.28099683 -0.94678617 0.0095769037
0.16591674 -0.11638272 0.54500002 0.17160355 0.27889794 -0.94486403 0.0093011903
0.16800718 -0.11680616 0.54700005 0.19427721 0.27866244 -0.94053376 0.01009856
0.1694888 -0.11680263 0.54700005 0.2108409 0.27810696 -0.93712467 0.010626574
0.17097048 -0.1167992 0.54700005 0.2245713 0.27613804 -0.93451351 0.010695814
0.17245229 -0.1167959 0.54700005 0.24263686 0.27437463 -0.93050843 0.011022605
0.17425215 -0.11700623 0.54800004 0.2646392 0.27428114 -0.9245193 0.011023986
0.17605755 -0.11721669 0.54900002 0.28971881 0.27378601 -0.91711736 0.010722703
0.1775451 -0.11721377 0.54900002 0.30570957 0.27418247 -0.91179258 0.010346531
0.179685 -0.11763797 0.551 0.33992648 0.2740784 -0.89962822 0.012093491
0.18150711 -0.11784883 0.55200005 0.36419213 0.27612004 -0.88945031 0.012276253
0.1830032 -0.1178463 0.55200005 0.37757969 0.27770272 -0.88335425 0.012250286
0.18416525 -0.11763045 0.551 0.38553187 0.27706933 -0.88011235 0.011753522
0.18633291 -0.11805521 0.55300003 0.41825381 0.2776387 -0.86485869 0.010767347
0.18783231 -0.11805316 0.55300003 0.43119028 0.27970287 -0.85781193 0.011200245
0.18967426 -0.11826473 0.55400002 0.44946975 0.2800546 -0.84826076 0.010669501
0.19186695 -0.11868994 0.55600005 0.47242954 0.2851415 -0.83396918 0.009184896
0.19407071 -0.1191153 0.55800003 0.48889861 0.28730169 -0.82367218 0.007604748
0.19663608 -0.1197543 0.56100005 0.50933546 0.28856322 -0.81074572 0.0073831296
0.19815832 -0.11975307 0.56100005 0.51225203 0.29086271 -0.80808216 0.0076160319
0.20039269 -0.12017893 0.56300002 0.52389413 0.29543474 -0.79890752 0.0089025218
0.20192097 -0.12017807 0.56300002 0.528974 0.29757914 -0.79475355 0.0094267568
0.20453358 -0.12081778 0.56600004 0.5343169 0.30091169 -0.7899099 0.0098734563
0.20679875 -0.12124421 0.56800002 0.53740174 0.30768454 -0.78519404 0.0098051578
0.20907512 -0.12167087 0.57000005 0.54140973 0.31215176 -0.78066427 0.0098785553
0.21099319 -0.12188426 0.57100004 0.53697622 0.31759211 -0.78153169 0.010268118
0.21291706 -0.12209785 0.57200003 0.53083932 0.31761336 -0.78570431 0.01138465
0.2144718 -0.12209821 0.57200003 0.52035689 0.32191619 -0.79094797 0.010913327
0.21338324 -0.12060457 0.565 0.53425795 0.32074663 -0.78210622 0.011032104
-0.016171239 -0.11699637 0.53900003 0.81754327 -0.52904463 -0.22745277 0.054919235
-0.01549188 -0.12329235 0.56800002 0.92177236 -0.31349128 -0.22816429 0.053108495
-0.01399151 -0.12372759 0.57000005 0.93528914 -0.2991859 -0.18900244 0.052642941
-0.012349274 -0.12286031 0.56600004 0.92652279 -0.30794162 -0.21616542 0.051871181
-0.010022481 -0.11396132 0.52500004 0.78731227 -0.56956178 -0.23609063 0.094824128
-0.00944106 -0.1252497 0.57700002 0.95650673 -0.26121911 -0.12984404 0.059999269
-0.0075942278 -0.12090891 0.55700004 0.8875438 -0.38613036 -0.25133511 0.050920397
-0.0061073373 -0.12156063 0.56 0.91188985 -0.3403784 -0.22934599 0.051578637
-0.0037655851 -0.14999798 0.69100004 -0.91371673 0.19401306 -0.35704443 0.0091478648
-0.0018803499 -0.1499982 0.69100004 -0.9126538 0.19407216 -0.35972089 0.0088327145
4.8549191e-06 -0.14891291 0.68600005 -0.91214114 0.18454035 -0.36598268 0.007746825
0.001862777 -0.14782746 0.68100005 -0.90930867 0.18102266 -0.37468466 0.0060508451
0.003698875 -0.14695895 0.67700005 -0.90480459 0.17744905 -0.38709244 0.0052196784
0.005496752 -0.14565615 0.671 -0.90153617 0.16395709 -0.40043804 0.0045100907
0.007283716 -0.14478742 0.66700006 -0.89785498 0.16009806 -0.41015247 0.0042356472
0.0090488326 -0.1439185 0.66300005 -0.88793105 0.15393883 -0.4334527 0.0034994199
0.010808475 -0.14326653 0.66000003 -0.87610561 0.15224327 -0.4574506 0.0038615046
0.012551717 -0.14261445 0.65700001 -0.86281878 0.15056124 -0.48257136 0.0046321517
0.014256726 -0.14174519 0.65300006 -0.85041565 0.15090819 -0.50400394 0.0053581125
0.015964428 -0.14109287 0.65000004 -0.83545566 0.15410459 -0.52750885 0.0052810446
0.017655719 -0.1404404 0.64700001 -0.81913835 0.15736376 -0.55158776 0.0052857348
0.019330593 -0.13978785 0.64400005 -0.80605459 0.16010123 -0.5697751 0.0051497873
0.020989047 -0.13913517 0.64100003 -0.78172386 0.16393402 -0.60169214 0.0055991653
0.022702022 -0.13891651 0.64000005 -0.77016884 0.1696482 -0.61486536 0.0061693192
0.024371274 -0.13848063 0.63800001 -0.75021529 0.174796 -0.63767028 0.0069298968
0.025988625 -0.13782763 0.63500005 -0.73041445 0.18572015 -0.65726912 0.0084333653
0.027676849 -0.13760859 0.634 -0.71460229 0.19441089 -0.67197323 0.010117798
0.029452303 -0.13782354 0.63500005 -0.70874292 0.194135 -0.67822945 0.010360565
0.031184023 -0.13782132 0.63500005 -0.69716489 0.20086871 -0.68819541 0.01053893
0.032811988 -0.13738489 0.63300002 -0.67637092 0.21231613 -0.70529729 0.010626496
0.034374394 -0.13673133 0.63000005 -0.65546942 0.21951683 -0.72261488 0.0093655856
0.035805762 -0.13564359 0.625 -0.64104962 0.22904861 -0.73252445 0.0087458994
0.037449833 -0.13542391 0.62400001 -0.63904124 0.23008405 -0.73395348 0.0086442465
0.039088354 -0.13520411 0.62300003 -0.64853549 0.23313162 -0.72460431 0.0098072262
0.040786784 -0.13520122 0.62300003 -0.65502518 0.23211031 -0.71907365 0.010653354
0.042485107 -0.13519822 0.62300003 -0.66093051 0.22931349 -0.71455312 0.011600181
0.044183318 -0.13519511 0.62300003 -0.66576612 0.23006186 -0.70980769 0.012594962
0.045807764 -0.13497488 0.62200004 -0.68341327 0.22868454 -0.69328892 0.014373009
0.047426645 -0.13475454 0.62100005 -0.70162016 0.22196177 -0.67709833 0.015810698
0.049039949 -0.13453412 0.62 -0.72304541 0.2192459 -0.65508515 0.016926726
0.050647672 -0.1343136 0.61900002 -0.73959196 0.21460673 -0.63792449 0.017192753
0.052334365 -0.13430996 0.61900002 -0.75206512 0.21437696 -0.62325001 0.01700577
0.054020919 -0.13430624 0.61900002 -0.7593714 0.21104637 -0.61547905 0.017459953
0.055347364 -0.13343452 0.61500001 -0.79320955 0.20161334 -0.57460475 0.016123254
0.056466423 -0.13212882 0.60900003 -0.82432342 0.19648534 -0.53092784 0.012489957
0.057457227 -0.13060619 0.60200006 -0.84046024 0.19003445 -0.50745785 0.0098994728
0.05890058 -0.13016826 0.60000002 -0.84456122 0.18876825 -0.50108176 0.0090444693
0.06013111 -0.12929639 0.59600002 -0.84177947 0.19169453 -0.50463885 0.0094669629
0.061650556 -0.12907529 0.59500003 -0.83391047 0.19423233 -0.51659179 0.010603281
0.063058071 -0.12863719 0.59300005 -0.81642056 0.20018312 -0.54164952 0.011331767
0.064672656 -0.12863284 0.59300005 -0.80589199 0.20262778 -0.5563094 0.011241933
0.066063531 -0.12819462 0.59100002 -0.77337307 0.21220583 -0.59738004 0.0090038404
0.067557864 -0.12797321 0.59000003 -0.7649287 0.21602274 -0.60680991 0.0083284844
0.068812132 -0.12731797 0.58700001 -0.73789442 0.22622719 -0.63587189 0.0054568346
0.070169881 -0.12687959 0.58500004 -0.73125899 0.22971047 -0.6422565 0.0052966536
0.071393892 -0.12622426 0.58200002 -0.71412122 0.23878147 -0.65803826 0.0050531314
0.072977602 -0.12621954 0.58200002 -0.70885766 0.24129272 -0.66279608 0.0052287932
0.074433044 -0.12599789 0.58100003 -0.70120424 0.2446281 -0.66967881 0.0054430477
0.076013699 -0.12599301 0.58100003 -0.69321603 0.24823277 -0.67663288 0.0053857979
0.077193536 -0.12533754 0.57800001 -0.67957455 0.25381604 -0.6882993 0.004996906
0.078629427 -0.12511572 0.57700002 -0.67153865 0.25750858 -0.69478428 0.0050280592
0.079920739 -0.12467705 0.57500005 -0.66394359 0.26173192 -0.70048225 0.0045429668
0.081484407 -0.12467197 0.57500005 -0.65892798 0.2643019 -0.70424324 0.0047617997
0.083047904 -0.12466682 0.57500005 -0.65572339 0.2664125 -0.70643556 0.0053417087
0.084464096 -0.12444483 0.574 -0.64838558 0.2695899 -0.71198136 0.005894531
0.085574947 -0.12378921 0.57100004 -0.63564223 0.2759116 -0.72099352 0.0051630116
0.086821891 -0.12335036 0.56900001 -0.62798011 0.2827453 -0.72504902 0.0057369303
0.088213101 -0.12312828 0.56800002 -0.61944872 0.28625685 -0.73098582 0.0061420156
0.089440703 -0.12268942 0.56600004 -0.6074689 0.29166156 -0.73886073 0.0056139561
0.09081798 -0.12246729 0.565 -0.60138351 0.29419029 -0.74282563 0.0070239687
0.09218967 -0.12224513 0.56400001 -0.59156752 0.29942262 -0.74859464 0.0072493204
0.093389578 -0.12180622 0.56200004 -0.57914311 0.30482996 -0.75608993 0.0076027792
0.094916254 -0.12180077 0.56200004 -0.57127553 0.30648455 -0.76138788 0.0083717396
0.096271127 -0.12157856 0.56100005 -0.5570907 0.31148899 -0.76982111 0.0093866568
0.097969078 -0.12178975 0.56200004 -0.55033356 0.31047204 -0.77507424 0.0098612839
0.099495217 -0.12178418 0.56200004 -0.53944594 0.3119725 -0.78209412 0.0091273198
0.10120098 -0.12199528 0.56300002 -0.53297806 0.3117477 -0.78660512 0.0087493351
0.10236459 -0.1215563 0.56100005 -0.51763844 0.31609821 -0.79506755 0.007843405
0.10370236 -0.12133399 0.56 -0.50798088 0.31791636 -0.80055267 0.0078849178
0.10465875 -0.12067838 0.55700004 -0.49051893 0.32309905 -0.80931956 0.0081040943
0.10617054 -0.12067275 0.55700004 -0.48016673 0.32324958 -0.81544447 0.0083252443
0.10768215 -0.12066709 0.55700004 -0.47145674 0.32255709 -0.8207835 0.0090100579
0.10899759 -0.1204448 0.55600005 -0.46065784 0.32367265 -0.82645649 0.0080499575
0.11030743 -0.12022252 0.55500001 -0.44992691 0.32468748 -0.8319518 0.0080815759
0.11141025 -0.11978365 0.55300003 -0.43925458 0.32738695 -0.83658421 0.008653705
0.11291041 -0.11977799 0.55300003 -0.43024996 0.32840833 -0.8408525 0.0093677677
0.11482422 -0.12020551 0.55500001 -0.42492542 0.32626656 -0.84438652 0.0096704364
0.11611991 -0.11998326 0.55400002 -0.41192877 0.32664597 -0.85065693 0.0099710673
0.11741005 -0.11976103 0.55300003 -0.4006851 0.3262946 -0.85614449 0.010418342
0.11847959 -0.11932226 0.551 -0.38818458 0.32780558 -0.86131078 0.010185901
0.11997363 -0.11931664 0.551 -0.37753081 0.32764649 -0.86609375 0.0098255891
0.12146754 -0.11931104 0.551 -0.36386546 0.32561621 -0.87268317 0.0098113539
0.12318449 -0.11952198 0.55200005 -0.35367373 0.3245568 -0.87725574 0.010371162
0.12468085 -0.11951638 0.55200005 -0.33878663 0.32247081 -0.88387567 0.011076406
0.12594853 -0.11929431 0.551 -0.32277855 0.32163393 -0.89014912 0.012000697
0.12674809 -0.11863929 0.54800004 -0.30411354 0.32322344 -0.89612585 0.013333084
0.12776525 -0.11820083 0.546 -0.28841186 0.32464188 -0.90079206 0.014502456
0.12900819 -0.11797892 0.54500002 -0.2711376 0.32514367 -0.90596139 0.013697459
0.13072446 -0.11819 0.546 -0.25358236 0.32221183 -0.91207206 0.01358949
0.13196178 -0.11796816 0.54500002 -0.23904406 0.32057023 -0.91656572 0.01340322
0.13368328 -0.11817928 0.546 -0.22122841 0.31838092 -0.9217872 0.013712307
0.13491499 -0.11795755 0.54500002 -0.20334588 0.31717342 -0.92631066 0.013467249
0.13664174 -0.11816874 0.546 -0.18623933 0.31729442 -0.92985976 0.013756759
0.13812084 -0.11816353 0.546 -0.17044806 0.31879306 -0.93237251 0.014577193
0.13959989 -0.11815839 0.546 -0.15388525 0.31817636 -0.93545878 0.015094219
0.14082046 -0.11793689 0.54500002 -0.14082636 0.31691822 -0.93793964 0.014858237
0.14229667 -0.11793184 0.54500002 -0.12735374 0.31626868 -0.94008249 0.014951625
0.14377283 -0.11792687 0.54500002 -0.10828506 0.31343654 -0.94341499 0.014813068
0.1452489 -0.11792195 0.54500002 -0.089862831 0.31199339 -0.94582492 0.01465114
0.14618653 -0.11748438 0.54300004 -0.074597269 0.31181449 -0.94721013 0.014324913
0.14792907 -0.11769596 0.54400003 -0.053167418 0.31064609 -0.94903755 0.014153684
0.14912774 -0.11747493 0.54300004 -0.038321655 0.31011224 -0.94992727 0.014151948
0.15115294 -0.11790296 0.54500002 -0.014470709 0.30809551 -0.95124537 0.013301999
0.15234885 -0.11768208 0.54400003 0.0049228426 0.30696964 -0.95170659 0.012494359
0.15438761 -0.11811025 0.546 0.036127809 0.30196664 -0.95263368 0.012305121
0.15558079 -0.11788954 0.54500002 0.052767631 0.29993513 -0.95249903 0.011708074
0.15705673 -0.11788524 0.54500002 0.069602095 0.2983115 -0.95192742 0.011518464
0.15795094 -0.11744844 0.54300004 0.077450201 0.29808214 -0.95139289 0.010948032
0.15971512 -0.11766062 0.54400003 0.1014868 0.29610792 -0.94974756 0.01160797
0.16118842 -0.11765662 0.54400003 0.11822774 0.29559633 -0.9479689 0.010997339
0.1629608 -0.11786899 0.54500002 0.14107981 0.29482228 -0.9450801 0.010130026
0.16443692 -0.11786518 0.54500002 0.15702815 0.29343253 -0.94299501 0.0090415692
0.16591308 -0.11786147 0.54500002 0.17254901 0.29067463 -0.94113499 0.0089439871
0.16738932 -0.11785788 0.54500002 0.18708657 0.28989398 -0.93859476 0.0092753293
0.16886562 -0.11785441 0.54500002 0.20126627 0.2883127 -0.93614507 0.0096318563
0.17034201 -0.11785106 0.54500002 0.21573143 0.28837472 -0.9328987 0.010126031
0.1721338 -0.11806408 0.546 0.23810996 0.28685904 -0.9279092 0.010047171
0.17329516 -0.11784475 0.54500002 0.2450451 0.28606725 -0.92634678 0.010406462
0.17541325 -0.11827423 0.54700005 0.27428326 0.28510594 -0.9184134 0.010034298
0.17689551 -0.1182714 0.54700005 0.2910057 0.28437513 -0.91348046 0.01025555
0.17935623 -0.11891732 0.55000001 0.33306953 0.2862291 -0.89840835 0.0108672
0.1808469 -0.11891475 0.55000001 0.3464177 0.28610224 -0.89338696 0.011103153
0.18266925 -0.11912851 0.551 0.37192515 0.28849784 -0.88229287 0.011403384
0.18382877 -0.11891005 0.55000001 0.37910092 0.28853136 -0.87922245 0.01149423
0.18599388 -0.11934032 0.55200005 0.40706375 0.28944173 -0.86632705 0.010038882
0.18783037 -0.11955455 0.55300003 0.42938566 0.29206792 -0.85459006 0.010390459
0.18967247 -0.11976893 0.55400002 0.4475517 0.29434833 -0.84442675 0.010383957
0.19117516 -0.11976728 0.55400002 0.46023819 0.29528481 -0.83725005 0.0097469166
0.19337368 -0.12019818 0.55600005 0.47804677 0.29672867 -0.82669431 0.00840127
0.1959338 -0.12084543 0.55900002 0.49857044 0.29794696 -0.81403631 0.0067167934
0.19780399 -0.12106048 0.56 0.50603676 0.30306077 -0.80751532 0.0070293345
0.19967993 -0.12127572 0.56100005 0.51597655 0.30617774 -0.80001462 0.0077300644
0.2015616 -0.12149115 0.56200004 0.5225817 0.31077686 -0.79393083 0.008555498
0.20417169 -0.1221391 0.565 0.52947193 0.31408757 -0.78804088 0.0096303672
0.20643434 -0.1225711 0.56700003 0.53294915 0.31713232 -0.78446943 0.0093305483
0.2087082 -0.12300328 0.56900001 0.53582627 0.32380179 -0.77977085 0.009545302
0.21062377 -0.12321953 0.57000005 0.5313158 0.33052263 -0.78003734 0.010442699
0.21254514 -0.12343596 0.57100004 0.52584422 0.33493811 -0.78185958 0.011085389
0.2140974 -0.12343646 0.57100004 0.5222103 0.33837447 -0.78281486 0.011666827
0.21413936 -0.12257246 0.56700003 0.52704918 0.33612561 -0.78053743 0.010612504
-0.020280331 -0.12570776 0.57200003 0.93395954 -0.29658866 -0.19938573 0.055656023
-0.016080035 -0.11779868 0.53600001 0.80632031 -0.54001552 -0.24131033 0.062373746
-0.015190732 -0.12241513 0.55700004 0.88056231 -0.39541596 -0.26125875 0.043395635
-0.014015011 -0.12549308 0.57100004 0.94194776 -0.28885168 -0.17116959 0.051972102
-0.012522885 -0.12615341 0.574 0.94260335 -0.28632188 -0.17181012 0.056085903
-0.0095712431 -0.12857267 0.58500004 0.9674226 -0.24130853 -0.076573908 0.057886187
-0.0075254943 -0.12132047 0.55200005 0.87355894 -0.42841581 -0.23098636 0.052888725
-0.0061395951 -0.12373859 0.56300002 0.93416083 -0.3066636 -0.1824854 0.049100418
-0.0037380576 -0.15077293 0.68600005 -0.91100883 0.19450784 -0.36363402 0.0073516029
-0.0018693251 -0.15099292 0.68700004 -0.91098297 0.19432351 -0.36379716 0.0074029472
4.833325e-06 -0.15011385 0.68300003 -0.90901542 0.18811931 -0.37188992 0.0064633614
0.0018571671 -0.14923462 0.67900002 -0.90669757 0.18459621 -0.37924099 0.0054348134
0.0036876712 -0.14835528 0.67500001 -0.90241563 0.17903097 -0.39191064 0.0049863029
0.0054881498 -0.147256 0.67000002 -0.89869589 0.17259496 -0.40318316 0.0046282648
0.0072831698 -0.14659618 0.66700006 -0.8962971 0.16685675 -0.41086528 0.0042618709
0.0090481555 -0.14571643 0.66300005 -0.88822287 0.15814704 -0.43133461 0.0036013667
0.010791292 -0.14483656 0.65900004 -0.87371957 0.16169144 -0.45877019 0.0041748215
0.012531677 -0.14417633 0.65600002 -0.86052293 0.15954383 -0.48378313 0.0045349016
0.014255661 -0.14351599 0.65300006 -0.84973943 0.15905488 -0.50263757 0.0048942165
0.015987797 -0.1430753 0.65100002 -0.84035456 0.1612483 -0.51749712 0.0051087737
0.017654404 -0.14219494 0.64700001 -0.81998098 0.16321933 -0.54862618 0.0049596597
0.01929914 -0.14131446 0.64300001 -0.80203545 0.16711232 -0.5734219 0.0047828858
0.020987488 -0.1408734 0.64100003 -0.7862367 0.17112432 -0.59375781 0.0055304174
0.022700336 -0.14065202 0.64000005 -0.77247161 0.17706589 -0.60986483 0.0062129628
0.024407666 -0.14043051 0.63900006 -0.75953621 0.18109797 -0.62474656 0.0068601491
0.026027625 -0.13976935 0.63600004 -0.73764497 0.19212817 -0.64727634 0.0080395276
0.027718456 -0.13954759 0.63500005 -0.72520447 0.19784728 -0.65949601 0.0095831603
0.029496513 -0.13976525 0.63600004 -0.71971649 0.20142671 -0.66440612 0.009916286
0.031230835 -0.139763 0.63600004 -0.70838696 0.20674613 -0.67486578 0.010268691
0.032861412 -0.13932115 0.634 -0.6862126 0.2154602 -0.69475836 0.01033297
0.034371879 -0.1384397 0.63000005 -0.65758246 0.22660768 -0.71849447 0.009504918
0.035860438 -0.13755816 0.62600005 -0.64432573 0.23711945 -0.72706175 0.0090409731
0.037447106 -0.137116 0.62400001 -0.64205152 0.24095097 -0.72781348 0.009354474
0.039085515 -0.13689348 0.62300003 -0.64874744 0.24216226 -0.72144592 0.009675161
0.040783834 -0.13689059 0.62300003 -0.65336055 0.24282067 -0.71704823 0.010444492
0.042550232 -0.1371073 0.62400001 -0.6547544 0.24037537 -0.71660066 0.010956803
0.044251058 -0.13710417 0.62400001 -0.66143906 0.24185057 -0.70993441 0.012151701
0.045951769 -0.13710093 0.62400001 -0.66504419 0.24151276 -0.70667386 0.013054752
0.047575988 -0.13687788 0.62300003 -0.68024397 0.23843467 -0.69312119 0.014750464
0.049273737 -0.13687442 0.62300003 -0.6870085 0.23580222 -0.68732584 0.015376019
0.050725903 -0.13621178 0.62 -0.72652894 0.22999746 -0.64750051 0.017246831
0.052415214 -0.13620812 0.62 -0.73928905 0.22746466 -0.63380718 0.017707657
0.053929862 -0.135765 0.61800003 -0.76499826 0.22125129 -0.60483521 0.017295748
0.055343483 -0.13510212 0.61500001 -0.79125142 0.2143093 -0.5727064 0.016441844
0.0564625 -0.13378018 0.60900003 -0.82272238 0.20540236 -0.53003567 0.012672802
0.057644118 -0.13267787 0.60400003 -0.83577782 0.20050037 -0.5111506 0.010195596
0.058896508 -0.13179517 0.60000002 -0.84370685 0.19390175 -0.50056064 0.0088464525
0.06022786 -0.1311321 0.597 -0.84499621 0.19538683 -0.49780047 0.0091364402
0.061646339 -0.13068862 0.59500003 -0.83514774 0.19918166 -0.51269376 0.010382482
0.063160114 -0.13046473 0.59400004 -0.82574528 0.20312527 -0.52619845 0.010869677
0.064559229 -0.13002111 0.59200001 -0.80006808 0.20923199 -0.56223929 0.010881546
0.065947309 -0.12957746 0.59000003 -0.76990855 0.22081435 -0.59873354 0.0083322329
0.067438848 -0.12935337 0.58900005 -0.7629475 0.22248836 -0.60696793 0.0076717292
0.068924785 -0.1291292 0.588 -0.74484652 0.22848696 -0.62689495 0.0060140057
0.070165239 -0.12846577 0.58500004 -0.73300552 0.23485224 -0.63839436 0.005962118
0.071511857 -0.1280219 0.583 -0.72127706 0.23928222 -0.65000272 0.0055026799
0.072847448 -0.12757799 0.58100003 -0.70802766 0.24680114 -0.66165406 0.0053972728
0.074428216 -0.12757319 0.58100003 -0.70353836 0.2492142 -0.66552693 0.0056637386
0.076008789 -0.12756832 0.58100003 -0.69794089 0.25148791 -0.67054629 0.0057171942
0.07732214 -0.12712428 0.57900006 -0.68487096 0.25697723 -0.68184644 0.0054427027
0.07862442 -0.12668018 0.57700002 -0.67354572 0.26199758 -0.69115365 0.0052910177
0.080193646 -0.12667514 0.57700002 -0.66970295 0.26562658 -0.69349861 0.0046903295
0.081620999 -0.12645051 0.57600003 -0.66330963 0.26900026 -0.69832611 0.0046612401
0.083187148 -0.12644535 0.57600003 -0.65831119 0.27048188 -0.70247126 0.0047370843
0.08445888 -0.1260011 0.574 -0.65034747 0.27805859 -0.70691705 0.0059817857
0.085719556 -0.12555687 0.57200003 -0.64059496 0.28419748 -0.71335119 0.0055696028
0.086969197 -0.12511259 0.57000005 -0.63220114 0.28982505 -0.71855634 0.0055941856
0.088052489 -0.12444881 0.56700003 -0.61794782 0.29747158 -0.7277714 0.0052288235
0.089277327 -0.12400451 0.565 -0.60771632 0.30241299 -0.734321 0.0055207042
0.090812601 -0.12399916 0.565 -0.6024394 0.30477262 -0.73768586 0.006439406
0.09202081 -0.12355483 0.56300002 -0.59024906 0.31108409 -0.74487102 0.0059830295
0.09355031 -0.12354939 0.56300002 -0.58239657 0.31274217 -0.75033772 0.0064076129
0.094910778 -0.1233245 0.56200004 -0.57224065 0.31783718 -0.75598955 0.0071701007
0.096608818 -0.12353843 0.56300002 -0.5636583 0.31802738 -0.76233059 0.0081162965
0.098312147 -0.1237523 0.56400001 -0.5557391 0.31789178 -0.76817894 0.009112047
0.099666677 -0.12352733 0.56300002 -0.54236245 0.32016307 -0.77674872 0.0088951904
0.10083587 -0.12308292 0.56100005 -0.52920324 0.32513022 -0.78373098 0.0083952593
0.10199405 -0.12263853 0.55900002 -0.51377499 0.32737616 -0.79300708 0.0077013518
0.10332638 -0.12241355 0.55800003 -0.50334615 0.33136141 -0.79802394 0.0078562219
0.10465313 -0.12218856 0.55700004 -0.4908759 0.33417815 -0.80459046 0.0079716146
0.1061649 -0.12218293 0.55700004 -0.48090389 0.3356615 -0.80997699 0.0082134642
0.10786982 -0.12239662 0.55800003 -0.47265255 0.33489633 -0.81513429 0.008821181
0.10918796 -0.12217162 0.55700004 -0.46183833 0.33540511 -0.8211022 0.0084642628
0.11010304 -0.12150797 0.55400002 -0.44858479 0.33813074 -0.82730848 0.0084715998
0.11120315 -0.12106367 0.55200005 -0.43819931 0.3397615 -0.83219194 0.0095281554
0.11290476 -0.12127735 0.55300003 -0.43120047 0.33809042 -0.83651721 0.0094559239
0.11523231 -0.1221489 0.55700004 -0.42740887 0.33739856 -0.83873945 0.0095236441
0.11653344 -0.12192393 0.55600005 -0.41544506 0.33808866 -0.84445339 0.0097986935
0.11740439 -0.1212604 0.55300003 -0.40074432 0.33773455 -0.85166854 0.0099851182
0.11804394 -0.12037771 0.54900002 -0.38565663 0.34181279 -0.85699069 0.010282538
0.11953257 -0.12037212 0.54900002 -0.37345052 0.3420285 -0.86229426 0.009916028
0.12146194 -0.12080503 0.551 -0.36311781 0.33627528 -0.86894435 0.0095478743
0.12317891 -0.12101869 0.55200005 -0.35207084 0.33530247 -0.87385255 0.010374748
0.12467529 -0.12101312 0.55200005 -0.33618024 0.33565313 -0.87995446 0.010467836
0.12571442 -0.12056912 0.55000001 -0.32042524 0.33657908 -0.88546163 0.012060555
0.12651132 -0.11990601 0.54700005 -0.30203941 0.33932608 -0.89085919 0.013748625
0.12775981 -0.11968134 0.546 -0.28592384 0.33924904 -0.89619064 0.014557282
0.12876609 -0.11923754 0.54400003 -0.26944676 0.33901787 -0.90136862 0.013327715
0.13047968 -0.11945137 0.54500002 -0.25395966 0.33766991 -0.90635729 0.013285207
0.13195644 -0.11944602 0.54500002 -0.23796485 0.33514705 -0.91161901 0.012927347
0.13416764 -0.12009819 0.54800004 -0.22020532 0.33008918 -0.91790563 0.012999513
0.13540483 -0.11987375 0.54700005 -0.20245621 0.33063856 -0.92178607 0.012951564
0.13663653 -0.11964938 0.546 -0.18580912 0.33051857 -0.92532831 0.013323609
0.13786271 -0.11942507 0.54500002 -0.17006113 0.33011118 -0.9284966 0.013303213
0.13908345 -0.11920083 0.54400003 -0.1576753 0.33182371 -0.93007076 0.014201374
0.14055704 -0.11919578 0.54400003 -0.14097539 0.33218691 -0.9326188 0.01438601
0.14203061 -0.11919079 0.54400003 -0.12583227 0.32948086 -0.93573964 0.014313001
0.14403169 -0.11962402 0.546 -0.10676976 0.32633215 -0.93920583 0.013683792
0.14551054 -0.11961912 0.546 -0.08725515 0.3245942 -0.94182009 0.014146189
0.14698936 -0.1196143 0.546 -0.066696271 0.32312217 -0.94400406 0.01388672
0.14846818 -0.11960954 0.546 -0.049373966 0.32173175 -0.94554263 0.014345209
0.14967233 -0.11938581 0.54500002 -0.032421011 0.31978324 -0.94693583 0.013539515
0.15142572 -0.11960026 0.546 -0.0078211697 0.31874016 -0.94780988 0.013052343
0.1526244 -0.1193767 0.54500002 0.011982039 0.31635958 -0.94856369 0.012408162
0.15410043 -0.11937226 0.54500002 0.033835091 0.31379938 -0.94888628 0.011114212
0.15586193 -0.11958693 0.546 0.058552604 0.31099588 -0.9486059 0.011129306
0.1570525 -0.11936365 0.54500002 0.069598101 0.30955219 -0.94833195 0.010525149
0.15823771 -0.1191405 0.54400003 0.083707988 0.30918282 -0.94731146 0.01068511
0.15941751 -0.11891744 0.54300004 0.098504283 0.30734512 -0.94648612 0.010582099
0.16148078 -0.11935146 0.54500002 0.12368729 0.30557585 -0.94410002 0.010037492
0.16295697 -0.1193476 0.54500002 0.14137535 0.30448577 -0.94196677 0.0093008243
0.16473489 -0.11956283 0.546 0.16346982 0.30378681 -0.93861133 0.0092331078
0.16621388 -0.11955918 0.546 0.17700581 0.30152741 -0.93688321 0.0085610589
0.16769296 -0.11955565 0.546 0.19391714 0.30047357 -0.93386924 0.0090548964
0.16917208 -0.11955222 0.546 0.20646559 0.29919609 -0.93158668 0.009070185
0.17065133 -0.11954895 0.546 0.22030151 0.29779932 -0.92886108 0.00930057
0.17244594 -0.11976473 0.54700005 0.24594465 0.29716051 -0.92260873 0.010802875
0.17361011 -0.11954275 0.546 0.25307298 0.29713368 -0.92068762 0.010636957
0.17508969 -0.11953985 0.546 0.26642844 0.29703161 -0.91694498 0.01074292
0.17689277 -0.11975602 0.54700005 0.28848282 0.2972227 -0.9101848 0.010028398
0.17935361 -0.12041018 0.55000001 0.33165967 0.296222 -0.89568651 0.010910797
0.18150207 -0.12084554 0.55200005 0.36294737 0.29981083 -0.88225996 0.010956421
0.18299848 -0.12084318 0.55200005 0.37659991 0.29869175 -0.87690121 0.010144269
0.18416084 -0.12062207 0.551 0.38205627 0.29869434 -0.87453681 0.0097525856
0.18565494 -0.12062002 0.551 0.39880112 0.2991187 -0.86688274 0.009652297
0.18748887 -0.12083708 0.55200005 0.41940123 0.30332947 -0.85562485 0.0098794419
0.18932843 -0.12105426 0.55300003 0.43986699 0.30467957 -0.84480017 0.010385272
0.19082856 -0.12105271 0.55300003 0.45070475 0.30513284 -0.83890355 0.0096944273
0.19302453 -0.12148914 0.55500001 0.47199756 0.30795065 -0.82606578 0.0085683828
0.19558211 -0.12214463 0.55800003 0.49251708 0.30879536 -0.81367832 0.0068235807
0.19780301 -0.12258141 0.56 0.50273454 0.31428158 -0.80528569 0.0069148755
0.19967915 -0.12279949 0.56100005 0.51276529 0.31800953 -0.79745954 0.0071697906
0.20156099 -0.12301774 0.56200004 0.51863426 0.32165089 -0.79218626 0.0081022037
0.20380993 -0.12345506 0.56400001 0.52496779 0.32735616 -0.78565049 0.0091358367
0.20643416 -0.12411151 0.56700003 0.52809507 0.3317973 -0.78168166 0.0098363385
0.20870821 -0.12454925 0.56900001 0.53007233 0.33545944 -0.7787748 0.0096549978
0.21062399 -0.12476834 0.57000005 0.52703565 0.34257221 -0.77773893 0.010030861
0.21254559 -0.12498762 0.57100004 0.52235782 0.34379712 -0.78034979 0.010773215
0.21409804 -0.12498825 0.57100004 0.51838118 0.34792864 -0.78117007 0.011188329
0.21489556 -0.12455131 0.56900001 0.52041978 0.34684917 -0.78029412 0.010918285
0.21378067 -0.12302011 0.56200004 0.5275355 0.34442684 -0.77657998 0.0098161334
-0.015325949 -0.12503776 0.56200004 0.90281451 -0.35652524 -0.24044901 0.047951862
-0.013670363 -0.12392642 0.55700004 0.88843888 -0.37950817 -0.2581667 0.043546118
-0.012631025 -0.12882218 0.57900006 0.94768918 -0.28314862 -0.1473507 0.058866698
-0.011128061 -0.12971303 0.583 0.95870435 -0.2659176 -0.10086537 0.059237935
-0.0076476182 -0.12481958 0.56100005 0.9077909 -0.34001186 -0.24557628 0.050075799
-0.0062590814 -0.12771253 0.574 0.95309216 -0.26663846 -0.14324543 0.058021065
-0.0037432257 -0.15285541 0.68700004 -0.90823543 0.19994311 -0.36760193 0.0075212992
