# .PCD v0.7 - Point Cloud Data file format
VERSION 0.7
FIELDS x y z
SIZE 4 4 4
TYPE F F F
COUNT 1 1 1
WIDTH 1423
HEIGHT 1
VIEWPOINT 0 0 0 1 0 0 0
POINTS 1423
DATA ascii
-0.039707821 -0.20891538 0.50400001
-0.03841456 -0.20933004 0.505
-0.037115872 -0.20974475 0.50600004
-0.035741106 -0.20974492 0.50600004
-0.034366339 -0.20974509 0.50600004
-0.03305677 -0.21015978 0.50700003
-0.031679284 -0.21015996 0.50700003
-0.030301796 -0.21016015 0.50700003
-0.028981354 -0.21057487 0.50800002
-0.027655475 -0.21098955 0.509
-0.026427396 -0.21223332 0.51200002
-0.025085209 -0.212648 0.51300001
-0.023691406 -0.21264818 0.51300001
-0.022254135 -0.21223384 0.51200002
-0.020944539 -0.21306305 0.514
-0.019586043 -0.21347776 0.51500005
-0.018257422 -0.21430694 0.51700002
-0.016852736 -0.2143071 0.51700002
-0.015507811 -0.2151363 0.51900005
-0.014097685 -0.21513642 0.51900005
-0.012712004 -0.21555108 0.52000004
-0.011364344 -0.21679473 0.523
-0.0099623576 -0.21720937 0.52400005
-0.0085549336 -0.21762396 0.52500004
-0.0071420758 -0.21803856 0.52600002
-0.0057237814 -0.21845312 0.52700001
-0.0043244846 -0.22011127 0.53100002
-0.0028871701 -0.22052583 0.53200001
-0.0014444203 -0.22094037 0.53300005
3.7495142e-06 -0.22052586 0.53200001
0.0014546574 -0.22135489 0.53400004
0.0029218744 -0.22259843 0.537
0.0043972353 -0.22342744 0.53900003
0.0058725867 -0.22384192 0.54000002
0.0073533724 -0.22425638 0.54100001
0.0088559017 -0.22508536 0.54300004
0.01038832 -0.22632883 0.546
0.01193704 -0.22757229 0.54900002
0.01350206 -0.22881573 0.55200005
0.015083381 -0.23005916 0.55500001
0.016651107 -0.23088808 0.55700004
0.018262306 -0.23213147 0.56
0.019819153 -0.23254584 0.56100005
0.021457519 -0.23378922 0.56400001
0.023112183 -0.2350326 0.56700003
0.024826625 -0.23669048 0.57100004
0.026470408 -0.23751931 0.57300001
0.028027229 -0.23751912 0.57300001
0.029687312 -0.23834798 0.57500005
0.031412598 -0.23959129 0.57800001
0.03321125 -0.24124913 0.58200002
0.034912076 -0.24207798 0.58400005
0.036561266 -0.24249226 0.58500004
0.038215891 -0.24290656 0.58600003
0.039943874 -0.24373539 0.588
0.041612085 -0.24414971 0.58900005
0.043432444 -0.24539305 0.59200001
0.045269109 -0.24663639 0.59500003
0.047122084 -0.24787977 0.59800005
0.048828322 -0.24829413 0.59900004
0.050708465 -0.24953754 0.60200006
0.052430999 -0.24995191 0.60300004
0.054427978 -0.25160983 0.60700005
0.056077164 -0.25160974 0.60700005
0.057821453 -0.2520242 0.60800004
0.059473362 -0.25202417 0.60800004
0.061426885 -0.25326771 0.611
0.063396715 -0.25451127 0.61400002
0.065700762 -0.25699842 0.62
0.067711368 -0.25824204 0.62300003
0.0698497 -0.25990027 0.62700003
0.071781531 -0.26072946 0.62900001
0.073841095 -0.26197326 0.63200003
0.075797416 -0.26280257 0.634
0.077642359 -0.26321745 0.63500005
0.07911779 -0.2623888 0.63300002
0.080710083 -0.26197475 0.63200003
0.082427382 -0.26197529 0.63200003
0.084011599 -0.26156139 0.63100004
0.085590377 -0.26114753 0.63000005
0.08730235 -0.26114824 0.63000005
0.089296937 -0.26197815 0.63200003
0.091158412 -0.26239353 0.63300002
0.092731938 -0.26198003 0.63200003
0.094449498 -0.2619811 0.63200003
0.096319273 -0.26239681 0.63300002
0.09819454 -0.26281261 0.634
0.099760108 -0.26239949 0.63300002
0.10164092 -0.26281551 0.634
0.10336419 -0.26281708 0.634
0.10541905 -0.26364788 0.63600004
0.10697945 -0.26323521 0.63500005
0.10870566 -0.26323718 0.63500005
0.11025804 -0.26282471 0.634
0.11145181 -0.26158327 0.63100004
0.11298807 -0.26117107 0.63000005
0.1148831 -0.26158813 0.63100004
0.11659887 -0.26159075 0.63100004
0.11831477 -0.26159355 0.63100004
0.12003075 -0.26159647 0.63100004
0.12213274 -0.26242873 0.63300002
0.12385441 -0.26243201 0.63300002
0.1253778 -0.26202089 0.63200003
0.12689592 -0.26160991 0.63100004
0.12881635 -0.26202831 0.63200003
0.13053586 -0.2620323 0.63200003
0.13204621 -0.26162189 0.63100004
0.13355131 -0.26121166 0.63000005
0.13526581 -0.26121625 0.63000005
0.13676305 -0.26080638 0.62900001
0.13869533 -0.261226 0.63000005
0.14085612 -0.26206052 0.63200003
0.14257678 -0.26206598 0.63200003
0.14429767 -0.2620717 0.63200003
0.14532562 -0.26083356 0.62900001
0.14680497 -0.26042503 0.62800002
0.14804265 -0.25960204 0.62600005
0.14974804 -0.25960866 0.62600005
0.15121174 -0.25920081 0.625
0.15291491 -0.25920796 0.625
0.15461834 -0.25921535 0.625
0.15682225 -0.26005253 0.62700003
0.15853167 -0.26006055 0.62700003
0.16024137 -0.26006883 0.62700003
0.16195135 -0.26007739 0.62700003
0.16313961 -0.25925669 0.625
0.16484477 -0.25926584 0.625
0.16681674 -0.2596902 0.62600005
0.16825604 -0.25928515 0.625
0.16941836 -0.25846556 0.62300003
0.17166875 -0.25930578 0.625
0.17420785 -0.26056135 0.62800002
0.17648359 -0.26140243 0.63000005
0.17707346 -0.2597543 0.62600005
0.17849863 -0.25935122 0.625
0.17991877 -0.25894853 0.62400001
0.18191598 -0.25937617 0.625
0.18303776 -0.2585592 0.62300003
0.18385249 -0.25732747 0.62
0.18495053 -0.25651109 0.61800003
0.18724613 -0.25735536 0.62
0.18894367 -0.25736991 0.62
0.19094925 -0.25780004 0.62100005
0.19140965 -0.25615487 0.61700004
0.19278759 -0.25575545 0.61600006
0.19416054 -0.2553564 0.61500001
0.19552863 -0.25495782 0.61400002
0.19857395 -0.2545771 0.61300004
0.20058343 -0.2550104 0.61400002
0.20325786 -0.25627494 0.61700004
0.20495288 -0.25629401 0.61700004
0.20799939 -0.25386131 0.611
0.20865116 -0.25263572 0.60800004
0.20997891 -0.25224152 0.60700005
0.2116506 -0.25226337 0.60700005
0.21297155 -0.25187013 0.60600001
0.2142878 -0.25147736 0.60500002
0.21631321 -0.25191653 0.60600001
0.2190644 -0.25318784 0.60900003
0.22279271 -0.25365376 0.61000001
0.22558232 -0.25492734 0.61300004
0.22801861 -0.25578591 0.61500001
0.2300934 -0.25622934 0.61600006
0.23029315 -0.25459349 0.61200005
0.23160888 -0.254206 0.611
0.23253825 -0.25340304 0.60900003
0.23422673 -0.25343281 0.60900003
0.23475407 -0.25221467 0.60600001
0.23604612 -0.25182942 0.60500002
0.23733366 -0.2514447 0.60400003
0.23940817 -0.25189334 0.60500002
0.2410908 -0.25192633 0.60500002
0.24317588 -0.25237653 0.60600001
0.24365142 -0.25116152 0.60300004
0.2461457 -0.25202978 0.60500002
0.24660408 -0.25081584 0.60200006
0.24828424 -0.25085238 0.60200006
0.24871998 -0.24963942 0.59900004
0.25039431 -0.24967733 0.59900004
0.2508074 -0.24846534 0.59600002
0.25332317 -0.24933855 0.59800005
0.25627786 -0.25062981 0.60100001
0.25839239 -0.25108823 0.60200006
0.25878575 -0.24987891 0.59900004
0.25872886 -0.24825281 0.59500003
0.26083919 -0.24871346 0.59600002
0.26383758 -0.25000992 0.59900004
0.26552454 -0.25005534 0.59900004
0.26765913 -0.25051922 0.60000002
0.26935202 -0.25056651 0.60000002
0.27285355 -0.25228551 0.60400003
0.27683389 -0.25442386 0.60900003
0.28175902 -0.25739974 0.61600006
0.2848846 -0.25870597 0.61900002
0.28710288 -0.25917768 0.62
0.28839687 -0.25881439 0.61900002
0.29109326 -0.25970659 0.62100005
0.29427457 -0.26101846 0.62400001
0.29842377 -0.26316872 0.62900001
0.30308086 -0.26573959 0.63500005
0.30729404 -0.26789409 0.64000005
0.31008887 -0.26879466 0.64200002
0.31095392 -0.26802167 0.64000005
0.31229848 -0.26766837 0.63900006
0.31511432 -0.26857299 0.64100003
0.31992182 -0.27115563 0.64700001
0.32526353 -0.27416 0.65400004
0.32714644 -0.27423197 0.65400004
0.32903174 -0.27430522 0.65400004
0.33091968 -0.27437976 0.65400004
0.33484566 -0.27613428 0.65800005
0.33726212 -0.27663174 0.65900004
0.33711368 -0.27503136 0.65500003
0.33746231 -0.27385139 0.65200001
0.3372758 -0.2722519 0.648
0.3375923 -0.27107313 0.64500004
0.33631516 -0.26863378 0.63900006
0.33447665 -0.2657738 0.63200003
0.33579305 -0.26543733 0.63100004
0.33443105 -0.26299807 0.625
0.33411294 -0.26140046 0.62100005
0.33323336 -0.25938216 0.61600006
0.33559078 -0.25989121 0.61700004
0.3379572 -0.26040199 0.61800003
0.34088248 -0.26133615 0.62
0.34161177 -0.26058576 0.61800003
0.34566686 -0.26236719 0.62200004
0.34807289 -0.26288554 0.62300003
0.34992659 -0.26298371 0.62300003
0.34726647 -0.25970519 0.61500001
0.34796798 -0.25896046 0.61300004
0.350373 -0.2594845 0.61400002
0.35049301 -0.25831944 0.611
0.35117546 -0.25757805 0.60900003
0.35011047 -0.25556827 0.60400003
0.35484585 -0.25779146 0.60900003
0.35551539 -0.25705385 0.60700005
0.35970905 -0.25885925 0.611
0.36274746 -0.25982025 0.61300004
0.36818132 -0.26247999 0.61900002
0.36349243 -0.25793198 0.60800004
0.3593415 -0.25380602 0.59800005
0.36177728 -0.25434887 0.59900004
0.3648304 -0.25531882 0.60100001
0.3703407 -0.25799164 0.60700005
0.37221324 -0.25811753 0.60700005
0.37963697 -0.26207441 0.61600006
0.38154659 -0.26220626 0.61600006
0.38719597 -0.26489541 0.62200004
0.3853803 -0.26247624 0.61600006
0.3873046 -0.26261446 0.61600006
0.38797018 -0.26190177 0.61400002
0.38799334 -0.26076359 0.611
0.38608831 -0.25834519 0.60500002
0.38350943 -0.25549895 0.59800005
0.39120322 -0.25949153 0.60700005
0.39895961 -0.26349086 0.61600006
0.40873128 -0.26878098 0.62800002
0.41139096 -0.26936892 0.62900001
0.41734919 -0.27210242 0.63500005
0.42203107 -0.27398404 0.63900006
0.42740864 -0.27629942 0.64400005
0.4294903 -0.27647364 0.64400005
0.42956799 -0.27536181 0.64100003
0.43165305 -0.27554068 0.64100003
0.43856323 -0.27762845 0.64500004
-0.25447848 -0.24123143 0.574
-0.25506374 -0.243288 0.57900006
-0.25474685 -0.24450442 0.58200002
-0.25224012 -0.24362111 0.58000004
-0.25061014 -0.24357882 0.58000004
-0.24812306 -0.24269758 0.57800001
-0.24778095 -0.2439166 0.58100003
-0.24530499 -0.24303721 0.57900006
-0.24242067 -0.2417392 0.57600003
-0.23681426 -0.24407312 0.58200002
-0.23599975 -0.24487713 0.58400005
-0.23437257 -0.24484314 0.58400005
-0.23513775 -0.247325 0.59000003
-0.23389186 -0.24771123 0.59100002
-0.23106959 -0.24642171 0.588
-0.2274847 -0.24429514 0.583
-0.22702795 -0.24552163 0.58600003
-0.22732483 -0.24758628 0.59100002
-0.22759496 -0.24965109 0.59600002
-0.22708017 -0.25087839 0.59900004
-0.22617334 -0.25168732 0.60100001
-0.22450928 -0.25165918 0.60100001
-0.22136301 -0.24995695 0.597
-0.21971186 -0.24993028 0.597
-0.21952261 -0.25157863 0.60100001
-0.21894966 -0.25280866 0.60400003
-0.21764149 -0.25320199 0.60500002
-0.21347283 -0.25024804 0.59800005
-0.20863511 -0.24645834 0.58900005
-0.20138758 -0.23974113 0.57300001
-0.19597258 -0.2351175 0.56200004
-0.19096483 -0.23091352 0.55200005
-0.18875837 -0.23005703 0.55000001
-0.18622319 -0.22878292 0.54700005
-0.18404283 -0.2279277 0.54500002
-0.1812042 -0.22623672 0.54100001
-0.17872036 -0.22496465 0.53800005
-0.17625359 -0.22369316 0.53500003
-0.17380385 -0.22242232 0.53200001
-0.17201906 -0.2219882 0.53100002
-0.16991907 -0.22113654 0.52900004
-0.16783057 -0.22028539 0.52700001
-0.16606927 -0.21985272 0.52600002
-0.16400097 -0.21900256 0.52400005
-0.16225432 -0.2185708 0.523
-0.16082112 -0.21855739 0.523
-0.15908362 -0.21812645 0.52200001
-0.15705 -0.21727809 0.52000004
-0.15502775 -0.21643017 0.51800001
-0.15331338 -0.2160005 0.51700002
-0.15160492 -0.21557121 0.51600003
-0.14961119 -0.21472454 0.514
-0.14820547 -0.21471372 0.514
-0.1468001 -0.21470325 0.514
-0.14567797 -0.21511079 0.51500005
-0.14427057 -0.2151009 0.51500005
-0.14258607 -0.21467365 0.514
-0.14118204 -0.2146644 0.514
-0.13896251 -0.2134026 0.51100004
-0.13729806 -0.21297635 0.51000005
-0.13537288 -0.21213281 0.50800002
-0.13477765 -0.21337749 0.51100004
-0.13338326 -0.21336967 0.51100004
-0.13224743 -0.21377961 0.51200002
-0.1303397 -0.21293724 0.51000005
-0.12894876 -0.21293019 0.51000005
-0.12705787 -0.21208833 0.50800002
-0.1254255 -0.21166432 0.50700003
-0.12355412 -0.21082304 0.505
-0.12193581 -0.21039952 0.50400001
-0.12080158 -0.21081114 0.505
-0.11942559 -0.21080549 0.505
-0.11828358 -0.21121754 0.50600004
-0.11667422 -0.21079487 0.505
-0.11507048 -0.21037246 0.50400001
-0.11369795 -0.21036762 0.50400001
-0.11232557 -0.210363 0.50400001
-0.11051308 -0.20952381 0.50200003
-0.10871162 -0.20868483 0.5
-0.10735059 -0.20868075 0.5
-0.1059897 -0.20867687 0.5
-0.10462894 -0.20867315 0.5
-0.096466944 -0.20865406 0.5
-0.092387341 -0.20864642 0.5
-0.091027632 -0.20864409 0.5
-0.089668028 -0.20864192 0.5
-0.048902001 -0.20861533 0.5
-0.043554962 -0.20903243 0.50100005
-0.042277981 -0.20944966 0.50200003
-0.040914066 -0.20944972 0.50200003
-0.039550155 -0.20944977 0.50200003
-0.038338382 -0.21028426 0.50400001
-0.036969036 -0.21028434 0.50400001
-0.035811603 -0.21153614 0.50700003
-0.034502029 -0.21195348 0.50800002
-0.033187021 -0.21237078 0.509
-0.031741615 -0.2119537 0.50800002
-0.03030164 -0.2115366 0.50700003
-0.028924149 -0.21153672 0.50700003
-0.027600985 -0.21195406 0.50800002
-0.026324006 -0.21278869 0.51000005
-0.025036154 -0.21362326 0.51200002
-0.023691254 -0.21404061 0.51300001
-0.022253985 -0.21362349 0.51200002
-0.020822151 -0.21320641 0.51100004
-0.019509839 -0.21404099 0.51300001
-0.018151343 -0.21445832 0.514
-0.016820012 -0.21529293 0.51600003
-0.015447928 -0.21571027 0.51700002
-0.014097574 -0.21654484 0.51900005
-0.012711901 -0.21696217 0.52000004
-0.011342523 -0.21779671 0.52200001
-0.0099432627 -0.21821402 0.523
-0.0085222721 -0.21821406 0.523
-0.0071012815 -0.21821415 0.523
-0.0057020108 -0.21904866 0.52500004
-0.0043000155 -0.22030041 0.528
-0.0028708642 -0.22071768 0.52900004
-0.0014389878 -0.22155215 0.53100002
3.742434e-06 -0.22155216 0.53100002
0.0014491966 -0.22196938 0.53200001
0.0029055264 -0.22280386 0.53400004
0.0043727229 -0.2236383 0.53600001
0.0058616619 -0.22488996 0.53900003
0.0073261266 -0.22488993 0.53900003
0.0088395178 -0.22614156 0.54200006
0.010350182 -0.22697598 0.54400003
0.0119152 -0.22864483 0.54800004
0.013453033 -0.22947921 0.55000001
0.015028908 -0.23073082 0.55300003
0.016591189 -0.23156518 0.55500001
0.018229559 -0.233234 0.55900002
0.019713022 -0.23281664 0.55800003
0.021343231 -0.23406823 0.56100005
0.022989735 -0.23531978 0.56400001
0.024696022 -0.23698856 0.56800002
0.026377846 -0.23824014 0.57100004
0.028027054 -0.23907445 0.57300001
0.029635502 -0.23949155 0.574
0.031466767 -0.24157758 0.57900006
0.033154011 -0.2424119 0.58100003
0.034911897 -0.24366346 0.58400005
0.036498595 -0.24366333 0.58400005
0.038150501 -0.24408039 0.58500004
0.039807849 -0.24449751 0.58600003
0.041541275 -0.24533184 0.588
0.043358929 -0.24658342 0.59100002
0.045192897 -0.24783504 0.59400004
0.046964362 -0.24866943 0.59600002
0.048665185 -0.2490866 0.597
0.050455675 -0.24992101 0.59900004
0.052257035 -0.25075546 0.60100001
0.054158937 -0.25200716 0.60400003
0.056077149 -0.25325888 0.60700005
0.057821464 -0.25367618 0.60800004
0.059571221 -0.2540935 0.60900003
0.061527498 -0.25534531 0.61200005
0.063603342 -0.25701442 0.61600006
0.065700918 -0.25868356 0.62
0.067820258 -0.26035273 0.62400001
0.069627136 -0.26077023 0.625
0.071553595 -0.26160508 0.62700003
0.073374085 -0.26202267 0.62800002
0.075319603 -0.26285762 0.63000005
0.077031463 -0.26285815 0.63000005
0.078493364 -0.26202422 0.62800002
0.079816729 -0.26077315 0.625
0.081515081 -0.26077387 0.625
0.083213463 -0.26077464 0.625
0.084776014 -0.26035821 0.62400001
0.086333185 -0.25994191 0.62300003
0.088450134 -0.26119468 0.62600005
0.090151392 -0.26119578 0.62600005
0.091852702 -0.26119697 0.62600005
0.093255147 -0.26036376 0.62400001
0.095103301 -0.26078236 0.625
0.096802033 -0.26078385 0.625
0.098343238 -0.26036817 0.62400001
0.1001997 -0.26078713 0.625
0.10206167 -0.26120618 0.62600005
0.1040949 -0.26204267 0.62800002
0.10546519 -0.26121017 0.62600005
0.10733826 -0.26162964 0.62700003
0.10904294 -0.26163197 0.62700003
0.11039443 -0.26079985 0.625
0.1119145 -0.26038513 0.62400001
0.11324717 -0.25955331 0.62200004
0.1153082 -0.26039073 0.62400001
0.1171927 -0.26081103 0.625
0.11927301 -0.26164886 0.62700003
0.1209784 -0.26165223 0.62700003
0.12248826 -0.26123846 0.62600005
0.12399279 -0.26082483 0.625
0.12569313 -0.2608287 0.625
0.12718977 -0.26041543 0.62400001
0.12847459 -0.25958502 0.62200004
0.13037647 -0.26000679 0.62300003
0.13228397 -0.26042879 0.62400001
0.13441178 -0.26126835 0.62600005
0.1361158 -0.26127344 0.62600005
0.13781998 -0.26127875 0.62600005
0.13952436 -0.26128426 0.62600005
0.1410033 -0.26087257 0.625
0.14224872 -0.26004377 0.62300003
0.14325236 -0.25879771 0.62
0.14494121 -0.25880408 0.62
0.14615729 -0.25797588 0.61800003
0.14808039 -0.25840023 0.61900002
0.14904138 -0.25715506 0.61600006
0.15096498 -0.25757992 0.61700004
0.15264687 -0.25758761 0.61700004
0.15482928 -0.25843054 0.61900002
0.15702288 -0.25927383 0.62100005
0.15922768 -0.2601175 0.62300003
0.16066873 -0.25970888 0.62200004
0.1615826 -0.25846541 0.61900002
0.16300796 -0.25805736 0.61800003
0.16522762 -0.25890231 0.62
0.16665089 -0.25849485 0.61900002
0.16779713 -0.25767013 0.61700004
0.16920745 -0.25726327 0.61600006
0.17172235 -0.25852731 0.61900002
0.17341357 -0.25853881 0.61900002
0.17425656 -0.25729764 0.61600006
0.176226 -0.25772753 0.61700004
0.17762464 -0.25732237 0.61600006
0.17960042 -0.25775307 0.61700004
0.18011299 -0.25609532 0.61300004
0.18179037 -0.256109 0.61300004
0.18286958 -0.25528738 0.611
0.18544853 -0.25655538 0.61400002
0.18713008 -0.25657028 0.61400002
0.18850462 -0.25616771 0.61300004
0.18925369 -0.25492972 0.61000001
0.19061282 -0.25452787 0.60900003
0.19259852 -0.25496235 0.61000001
0.19331636 -0.25372541 0.60700005
0.19466072 -0.25332475 0.60600001
0.19600019 -0.2529245 0.60500002
0.19896837 -0.25461513 0.60900003
0.20130019 -0.25547025 0.611
0.20297921 -0.25548965 0.611
0.20432395 -0.2550914 0.61000001
0.2056639 -0.25469363 0.60900003
0.206999 -0.2542963 0.60800004
0.20764285 -0.25306281 0.60500002
0.20930885 -0.25308466 0.60500002
0.21062687 -0.25268868 0.60400003
0.21158862 -0.25187474 0.60200006
0.21218586 -0.25064281 0.59900004
0.21383835 -0.25066662 0.59900004
0.21621116 -0.25152802 0.60100001
0.21859583 -0.25239024 0.60300004
0.2206271 -0.25283456 0.60400003
0.22303279 -0.25369823 0.60600001
0.22433802 -0.2533066 0.60500002
0.2252651 -0.25249684 0.60300004
0.22580564 -0.25126868 0.60000002
0.22746785 -0.25129738 0.60000002
0.22951294 -0.25174561 0.60100001
0.23117991 -0.25177568 0.60100001
0.23323534 -0.25222546 0.60200006
0.23490711 -0.25225693 0.60200006
0.23579396 -0.25145093 0.60000002
0.23706657 -0.25106454 0.59900004
0.23793614 -0.25025955 0.597
0.23999974 -0.25071284 0.59800005
0.24004941 -0.24907041 0.59400004
0.24211253 -0.2495251 0.59500003
0.24336299 -0.2491418 0.59400004
0.24543409 -0.24959812 0.59500003
0.24543555 -0.24795753 0.59100002
0.24708828 -0.2479957 0.59100002
0.24705876 -0.24635595 0.58700001
0.24997392 -0.24765469 0.59000003
0.25248075 -0.24853483 0.59200001
0.2550002 -0.24941613 0.59400004
0.25666803 -0.24945855 0.59400004
0.25790238 -0.24908181 0.59300005
0.26000807 -0.24954599 0.59400004
0.26300192 -0.25085157 0.597
0.26512748 -0.25131801 0.59800005
0.26681405 -0.25136513 0.59800005
0.26760423 -0.25057232 0.59600002
0.27109569 -0.25230315 0.60000002
0.27415681 -0.25361502 0.60300004
0.27860904 -0.25619036 0.60900003
0.28217635 -0.2579262 0.61300004
0.28345242 -0.25755951 0.61200005
0.28472456 -0.25719362 0.611
0.2864618 -0.25724965 0.611
0.29008767 -0.25899124 0.61500001
0.29421285 -0.26115587 0.62
0.29884589 -0.26374388 0.62600005
0.30255476 -0.26549134 0.63000005
0.30532241 -0.26639768 0.63200003
0.30761766 -0.26688397 0.63300002
0.30943209 -0.26694992 0.63300002
0.31026533 -0.26617345 0.63100004
0.31405681 -0.26792935 0.63500005
0.31886855 -0.27053142 0.64100003
0.32321694 -0.27271396 0.64600003
0.32457727 -0.27236527 0.64500004
0.32694662 -0.27286243 0.64600003
0.33034229 -0.27420616 0.64900005
0.33324605 -0.27512929 0.65100002
0.33204573 -0.27267236 0.64500004
0.33236632 -0.27148387 0.64200002
0.33215168 -0.26987305 0.63800001
0.33244002 -0.26868573 0.63500005
0.33060786 -0.26580599 0.62800002
0.32926711 -0.26334924 0.62200004
0.33002323 -0.26258636 0.62
0.33023533 -0.26140076 0.61700004
0.33150914 -0.26106334 0.61600006
0.33277997 -0.26072711 0.61500001
0.33459207 -0.26081619 0.61500001
0.33695427 -0.26133099 0.61600006
0.33987546 -0.262272 0.61800003
0.34060007 -0.26151699 0.61600006
0.34298372 -0.26203704 0.61700004
0.34481779 -0.2621341 0.61700004
0.34721711 -0.26265782 0.61800003
0.34623691 -0.26063246 0.61300004
0.34750158 -0.26030844 0.61200005
0.34819299 -0.25956026 0.61000001
0.34830225 -0.25838739 0.60700005
0.34666666 -0.25593761 0.60100001
0.34557846 -0.25391349 0.59600002
0.34912664 -0.255299 0.59900004
0.3509391 -0.25540817 0.59900004
0.35746667 -0.2589317 0.60700005
0.35931122 -0.2590459 0.60700005
0.36234981 -0.26001585 0.60900003
0.35583606 -0.25415409 0.59500003
0.3576563 -0.25427154 0.59500003
0.3606891 -0.25524598 0.597
0.36556026 -0.25750646 0.60200006
0.36619419 -0.25677514 0.60000002
0.36743373 -0.25647321 0.59900004
0.3723706 -0.25874314 0.60400003
0.37424508 -0.25887427 0.60400003
0.37736973 -0.25986511 0.60600001
0.37487912 -0.25699759 0.59900004
0.37801039 -0.25799245 0.60100001
0.38179123 -0.25941992 0.60400003
0.38623121 -0.26128072 0.60800004
0.38495597 -0.25927585 0.60300004
0.38493749 -0.2581313 0.60000002
0.38683957 -0.25827894 0.60000002
0.39652202 -0.26359752 0.61200005
0.40758866 -0.26978642 0.62600005
0.40959042 -0.26994783 0.62600005
0.41422808 -0.27183768 0.63000005
0.41625464 -0.27200526 0.63000005
0.42160717 -0.2743355 0.63500005
0.42299518 -0.27407736 0.634
0.42840585 -0.27641684 0.63900006
0.42715952 -0.27331597 0.63100004
0.42854804 -0.27306661 0.63000005
0.43335438 -0.27498814 0.634
0.43757299 -0.27426514 0.63100004
-0.36744976 -0.26917243 0.62700003
-0.25008953 -0.23861468 0.56400001
-0.25334609 -0.24322322 0.57500005
-0.25303984 -0.24444754 0.57800001
-0.2505433 -0.24355805 0.57600003
-0.24719515 -0.24182419 0.57200003
-0.24515891 -0.2413598 0.57100004
-0.24568892 -0.24343213 0.57600003
-0.24364977 -0.24296924 0.57500005
-0.24161753 -0.24250728 0.574
-0.2368352 -0.24404632 0.57800001
-0.23522173 -0.24401048 0.57800001
-0.23401365 -0.24439752 0.57900006
-0.23320243 -0.24520715 0.58100003
-0.23277983 -0.24643929 0.58400005
-0.23154998 -0.24682793 0.58500004
-0.22795752 -0.2446859 0.58000004
-0.22517438 -0.24338877 0.57700002
-0.22473375 -0.24462321 0.58000004
-0.2250469 -0.24670142 0.58500004
-0.22533327 -0.24877979 0.59000003
-0.22445545 -0.24959345 0.59200001
-0.22243837 -0.24914292 0.59100002
-0.22042778 -0.24869308 0.59000003
-0.21842365 -0.248244 0.58900005
-0.2178982 -0.24948128 0.59200001
-0.21772236 -0.25114027 0.59600002
-0.21680021 -0.25195691 0.59800005
-0.21406892 -0.25066745 0.59500003
-0.21028402 -0.24811515 0.58900005
-0.2054702 -0.24430026 0.58000004
-0.20105836 -0.24090782 0.57200003
-0.19704011 -0.23793767 0.565
-0.19202322 -0.23370533 0.55500001
-0.18843502 -0.23115845 0.54900002
-0.18590197 -0.22987553 0.546
-0.1833861 -0.22859332 0.54300004
-0.18122233 -0.22773275 0.54100001
-0.17840569 -0.22603092 0.537
-0.17627062 -0.2251716 0.53500003
-0.17349362 -0.22347112 0.53100002
-0.17203511 -0.22345462 0.53100002
-0.16961341 -0.22217616 0.528
-0.1678457 -0.22173981 0.52700001
-0.16576824 -0.22088325 0.52500004
-0.16432823 -0.22086854 0.52500004
-0.16257843 -0.22043356 0.52400005
-0.16083458 -0.219999 0.523
-0.1587919 -0.21914427 0.52100003
-0.15676063 -0.21829003 0.51900005
-0.15444139 -0.21701564 0.51600003
-0.15302871 -0.21700339 0.51600003
-0.15102878 -0.21615042 0.514
-0.14933126 -0.2157184 0.51300001
-0.14763959 -0.21528676 0.51200002
-0.14623939 -0.21527594 0.51200002
-0.14512241 -0.21568589 0.51300001
-0.14372016 -0.21567567 0.51300001
-0.14204083 -0.21524535 0.51200002
-0.14064196 -0.21523575 0.51200002
-0.13869949 -0.21438573 0.51000005
-0.13730672 -0.21437678 0.51000005
-0.13538124 -0.2135274 0.50800002
-0.13452202 -0.21435964 0.51000005
-0.13286905 -0.21393116 0.509
-0.13199674 -0.21476385 0.51100004
-0.13009144 -0.21391566 0.509
-0.12895587 -0.21432856 0.51000005
-0.1270647 -0.21348093 0.50800002
-0.12567948 -0.21347407 0.50800002
-0.12380514 -0.21262701 0.50600004
-0.12218385 -0.21220039 0.505
-0.12080746 -0.21219426 0.505
-0.11966778 -0.21260853 0.50600004
-0.11828906 -0.21260279 0.50600004
-0.11667948 -0.21217711 0.505
-0.11507554 -0.21175167 0.50400001
-0.11347721 -0.21132644 0.50300002
-0.11210737 -0.21132156 0.50300002
-0.11051754 -0.21089673 0.50200003
-0.10871588 -0.21005201 0.5
-0.09919031 -0.21002528 0.5
-0.096469805 -0.21001904 0.5
-0.093749709 -0.21001334 0.5
-0.092389807 -0.21001071 0.5
-0.091212049 -0.21042821 0.50100005
-0.048902147 -0.20997444 0.5
-0.047543615 -0.20997427 0.5
-0.044826571 -0.20997398 0.5
-0.043555006 -0.21039385 0.50100005
-0.042362221 -0.21123365 0.50300002
-0.040995568 -0.21123357 0.50300002
-0.039628927 -0.21123354 0.50300002
-0.038262285 -0.21123353 0.50300002
-0.036968999 -0.21165347 0.50400001
-0.03567028 -0.21207342 0.505
-0.034434047 -0.21291333 0.50700003
-0.033121746 -0.21333331 0.50800002
-0.031679049 -0.21291341 0.50700003
-0.030301552 -0.21291347 0.50700003
-0.028981101 -0.21333346 0.50800002
-0.027600888 -0.21333353 0.50800002
-0.026323905 -0.21417353 0.51000005
-0.024987154 -0.21459351 0.51100004
-0.023691148 -0.21543348 0.51300001
-0.022297347 -0.21543355 0.51300001
-0.020903545 -0.21543363 0.51300001
-0.01950974 -0.2154337 0.51300001
-0.01815125 -0.21585372 0.514
-0.016754726 -0.2158538 0.514
-0.015447842 -0.21711373 0.51700002
-0.014097493 -0.21795373 0.51900005
-0.012785164 -0.21963356 0.523
-0.011385912 -0.22005357 0.52400005
-0.0099622142 -0.22005363 0.52400005
-0.0085059246 -0.21921377 0.52200001
-0.0071012368 -0.21963376 0.523
-0.005701975 -0.22047371 0.52500004
-0.004299988 -0.22173356 0.528
-0.0028708461 -0.22215356 0.52900004
-0.0014389786 -0.22299345 0.53100002
3.7494576e-06 -0.22341339 0.53200001
0.0014491874 -0.22341339 0.53200001
0.0029000668 -0.22383337 0.53300005
0.0043645371 -0.22467321 0.53500003
0.0058507505 -0.22593306 0.53800005
0.0073260809 -0.22635297 0.53900003
0.0088231536 -0.22719282 0.54100001
0.010350118 -0.22845261 0.54400003
0.011871642 -0.22929245 0.546
0.013428493 -0.23055226 0.54900002
0.014974467 -0.23139207 0.551
0.016591096 -0.23307179 0.55500001
0.018196847 -0.23433156 0.55800003
0.019748244 -0.23475143 0.55900002
0.021381166 -0.23601121 0.56200004
0.022989623 -0.23685101 0.56400001
0.024695907 -0.23853071 0.56800002
0.02637773 -0.23979048 0.57100004
0.028026937 -0.24063028 0.57300001
0.029738644 -0.24189006 0.57600003
0.031466659 -0.24314985 0.57900006
0.033210963 -0.24440959 0.58200002
0.034852009 -0.24482949 0.583
0.036560997 -0.24566932 0.58500004
0.038215633 -0.24608922 0.58600003
0.03980777 -0.24608918 0.58600003
0.041541208 -0.24692905 0.588
0.043358885 -0.2481889 0.59100002
0.045192864 -0.24944875 0.59400004
0.046964347 -0.25028864 0.59600002
0.048665185 -0.25070864 0.597
0.050455704 -0.25154862 0.59900004
0.052257083 -0.2523886 0.60100001
0.054248679 -0.25406852 0.60500002
0.055984866 -0.25448862 0.60600001
0.057916705 -0.25574869 0.60900003
0.059864856 -0.25700873 0.61200005
0.061829317 -0.25826883 0.61500001
0.063706845 -0.25910905 0.61700004
0.065595247 -0.2599493 0.61900002
0.06738586 -0.26036963 0.62
0.069181927 -0.26079008 0.62100005
0.070869319 -0.26079056 0.62100005
0.072673567 -0.26121107 0.62200004
0.074602835 -0.26205158 0.62400001
0.076298453 -0.26205227 0.62400001
0.077744119 -0.26121312 0.62200004
0.079178944 -0.26037398 0.62
0.080733359 -0.2599549 0.61900002
0.082415514 -0.25995588 0.61900002
0.083961852 -0.25953695 0.61800003
0.085502796 -0.25911811 0.61700004
0.087462217 -0.25995922 0.61900002
0.089144543 -0.25996053 0.61900002
0.090826921 -0.2599619 0.61900002
0.092359893 -0.25954342 0.61800003
0.094191819 -0.25996494 0.61900002
0.095874362 -0.25996664 0.61900002
0.097399369 -0.25954843 0.61800003
0.099239632 -0.25997034 0.61900002
0.10092238 -0.25997236 0.61900002
0.10277095 -0.26039448 0.62
0.10411961 -0.2595568 0.61800003
0.10597105 -0.25997919 0.61900002
0.10765412 -0.25998169 0.61900002
0.10916062 -0.2595644 0.61800003
0.11066182 -0.2591472 0.61700004
0.11233972 -0.25915015 0.61700004
0.11420252 -0.25957325 0.61800003
0.11607088 -0.25999656 0.61900002
0.1179448 -0.26042005 0.62
0.11924542 -0.25958359 0.61800003
0.12092663 -0.25958735 0.61800003
0.12260796 -0.25959128 0.61800003
0.12449056 -0.26001549 0.61900002
0.12597105 -0.25959975 0.61800003
0.12765284 -0.25960425 0.61800003
0.12954403 -0.26002902 0.61900002
0.13122886 -0.26003394 0.61900002
0.13312857 -0.26045918 0.62
0.13459902 -0.26004443 0.61900002
0.13650452 -0.26047009 0.62
0.13796991 -0.26005578 0.61900002
0.13943003 -0.25964168 0.61800003
0.14042825 -0.25838751 0.61500001
0.14164138 -0.25755367 0.61300004
0.14307764 -0.25714019 0.61200005
0.14474519 -0.2571471 0.61200005
0.14641297 -0.25715429 0.61200005
0.14759704 -0.25632134 0.61000001
0.14925988 -0.25632903 0.61000001
0.15117037 -0.25675723 0.611
0.15283646 -0.25676548 0.611
0.15475571 -0.25719434 0.61200005
0.15719187 -0.25846395 0.61500001
0.15886974 -0.25847319 0.61500001
0.15950371 -0.25680152 0.611
0.16064373 -0.25597066 0.60900003
0.16257271 -0.25640106 0.61000001
0.16423821 -0.25641143 0.61000001
0.16617608 -0.25684255 0.611
0.16784506 -0.25685364 0.611
0.16923697 -0.25644472 0.61000001
0.17062379 -0.2560361 0.60900003
0.17172267 -0.25520736 0.60700005
0.17423917 -0.25648117 0.61000001
0.17590737 -0.25649405 0.61000001
0.17786713 -0.25692782 0.611
0.17865746 -0.25567997 0.60800004
0.18032154 -0.25569397 0.60800004
0.18168679 -0.25528786 0.60700005
0.18365112 -0.25572324 0.60800004
0.18562147 -0.25615913 0.60900003
0.18698272 -0.2557542 0.60800004
0.18802872 -0.25492898 0.60600001
0.18906429 -0.25410408 0.60400003
0.19103676 -0.25454172 0.60500002
0.19142272 -0.25287604 0.60100001
0.19275108 -0.25247303 0.60000002
0.1937505 -0.25164956 0.59800005
0.19702682 -0.25377244 0.60300004
0.1990132 -0.25421253 0.60400003
0.20067351 -0.25423229 0.60400003
0.20166448 -0.25341067 0.60200006
0.20365839 -0.2538524 0.60300004
0.20565842 -0.25429466 0.60400003
0.20629174 -0.25305334 0.60100001
0.20760123 -0.25265452 0.60000002
0.20855722 -0.25183508 0.59800005
0.21020594 -0.25185829 0.59800005
0.21114689 -0.25103968 0.59600002
0.21279165 -0.251064 0.59600002
0.21479703 -0.25151014 0.597
0.21717133 -0.25237837 0.59900004
0.21919221 -0.25282595 0.60000002
0.22085136 -0.25285277 0.60000002
0.22102804 -0.25119439 0.59600002
0.22193074 -0.25037929 0.59400004
0.22282326 -0.24956462 0.59200001
0.22522229 -0.25043684 0.59400004
0.22763336 -0.25130987 0.59600002
0.22851771 -0.25049698 0.59400004
0.23094188 -0.25137156 0.59600002
0.23220743 -0.25098163 0.59500003
0.23346847 -0.25059226 0.59400004
0.23393339 -0.24935967 0.59100002
0.23517993 -0.24897137 0.59000003
0.23802759 -0.25027189 0.59300005
0.23846801 -0.24904083 0.59000003
0.24011381 -0.24907666 0.59000003
0.24094124 -0.24826877 0.588
0.24340896 -0.24915059 0.59000003
0.24381232 -0.24792162 0.58700001
0.24545465 -0.24796033 0.58700001
0.24667729 -0.24757734 0.58600003
0.24874315 -0.24804011 0.58700001
0.25038943 -0.24808124 0.58700001
0.25160769 -0.24770045 0.58600003
0.25411826 -0.2485887 0.588
0.25664154 -0.24947812 0.59000003
0.2596153 -0.25079161 0.59300005
0.2621668 -0.25168341 0.59500003
0.26340085 -0.25130719 0.59400004
0.26463082 -0.25093177 0.59300005
0.26585671 -0.25055704 0.59200001
0.26843435 -0.2514531 0.59400004
0.27147964 -0.25277382 0.597
0.27500123 -0.25451955 0.60100001
0.27900764 -0.25669053 0.60600001
0.28072798 -0.25674504 0.60600001
0.28245017 -0.25680059 0.60600001
0.28464314 -0.25728104 0.60700005
0.28731549 -0.25818667 0.60900003
0.29095048 -0.25994182 0.61300004
0.2941328 -0.26127476 0.61600006
0.29781458 -0.26303357 0.62
0.29958856 -0.26309699 0.62
0.30282292 -0.26443493 0.62300003
0.3041209 -0.26407644 0.62200004
0.30590713 -0.26414356 0.62200004
0.30720097 -0.26378712 0.62100005
0.31197432 -0.26640585 0.62700003
0.3152833 -0.26775226 0.63000005
0.31760532 -0.26825035 0.63100004
0.31942943 -0.2683247 0.63100004
0.32227421 -0.26925108 0.63300002
0.3251332 -0.2701793 0.63500005
0.324402 -0.26813012 0.63000005
0.32519782 -0.26735821 0.62800002
0.32650551 -0.26701307 0.62700003
0.32676277 -0.26581702 0.62400001
0.32647878 -0.26419553 0.62
0.32617423 -0.26257434 0.61600006
0.32691395 -0.26180625 0.61400002
0.32603875 -0.25975949 0.60900003
0.32782865 -0.25984612 0.60900003
0.33070397 -0.26078781 0.611
0.33250576 -0.2608777 0.611
0.33376348 -0.26054198 0.61000001
0.33556855 -0.26063475 0.61000001
0.33627075 -0.25987422 0.60800004
0.34030056 -0.2616801 0.61200005
0.3410033 -0.2609224 0.61000001
0.34394553 -0.26187727 0.61200005
0.34181824 -0.25898182 0.60500002
0.34476444 -0.25993985 0.60700005
0.34601322 -0.25961497 0.60600001
0.34783354 -0.25972003 0.60600001
0.34734967 -0.25811177 0.60200006
0.34800532 -0.25736171 0.60000002
0.34748659 -0.25575441 0.59600002
0.34929171 -0.25586462 0.59600002
0.3540462 -0.25812405 0.60100001
0.35528225 -0.25780916 0.60000002
0.35473064 -0.25620607 0.59600002
0.35056931 -0.25202286 0.58600003
0.35356647 -0.25300077 0.588
0.35658011 -0.25398141 0.59000003
0.3626475 -0.25711817 0.597
0.36509925 -0.25767449 0.59800005
0.36387986 -0.25564656 0.59300005
0.36756781 -0.25706908 0.59600002
0.36756009 -0.25590572 0.59300005
0.37003008 -0.25647014 0.59400004
0.36812854 -0.25401318 0.588
0.37122804 -0.25501338 0.59000003
0.37434486 -0.25601664 0.59200001
0.38065675 -0.25918654 0.59900004
0.38190874 -0.2588985 0.59800005
0.37866697 -0.25557992 0.59000003
0.38634443 -0.25962809 0.59900004
0.39343643 -0.26324946 0.60700005
0.39928228 -0.26600939 0.61300004
0.39469934 -0.26182756 0.60300004
0.39992455 -0.26416004 0.60800004
0.40518782 -0.26649767 0.61300004
0.40916097 -0.26797059 0.61600006
0.41382715 -0.26988307 0.62
0.41181856 -0.2674447 0.61400002
0.4205609 -0.27197939 0.62400001
0.41853923 -0.26954418 0.61800003
0.42192912 -0.27059984 0.62
0.41781691 -0.26685524 0.611
0.42876899 -0.27272326 0.62400001
0.4253149 -0.26941755 0.61600006
-0.36522254 -0.26927185 0.62300003
-0.24369337 -0.23258062 0.546
-0.24791729 -0.23807251 0.55900002
-0.25030658 -0.24185993 0.56800002
-0.25001946 -0.2430924 0.57100004
-0.24884677 -0.24347395 0.57200003
-0.24464425 -0.24087714 0.56600004
-0.24262397 -0.24040955 0.565
-0.243597 -0.24292099 0.57100004
-0.2432662 -0.24415624 0.574
-0.24123593 -0.24369077 0.57300001
-0.23601158 -0.24315006 0.57200003
-0.23441294 -0.24311307 0.57200003
-0.23322247 -0.24350181 0.57300001
-0.23081495 -0.2426165 0.57100004
-0.23082836 -0.24428117 0.57500005
-0.2296246 -0.24467173 0.57600003
-0.22920814 -0.24591234 0.57900006
-0.22602446 -0.24418066 0.57500005
-0.2244253 -0.24414854 0.57500005
-0.22398973 -0.24539076 0.57800001
-0.22315377 -0.24620883 0.58000004
-0.22268967 -0.24745177 0.583
-0.22069313 -0.24699751 0.58200002
-0.22020878 -0.24824139 0.58500004
-0.21896143 -0.24863701 0.58600003
-0.21808034 -0.24945739 0.588
-0.21608473 -0.24900563 0.58700001
-0.21482624 -0.24940288 0.588
-0.21320051 -0.24937652 0.588
-0.21121578 -0.24892668 0.58700001
-0.20816626 -0.24720548 0.583
-0.20372239 -0.24378927 0.57500005
-0.19897193 -0.23995031 0.56600004
-0.19427183 -0.23611262 0.55700004
-0.19100624 -0.23397164 0.55200005
-0.18776885 -0.23183149 0.54700005
-0.18421917 -0.22926845 0.54100001
-0.18205422 -0.22840135 0.53900003
-0.17956591 -0.22711113 0.53600001
-0.17775925 -0.22666898 0.53500003
-0.17562915 -0.22580369 0.53300005
-0.17351061 -0.22493894 0.53100002
-0.17140363 -0.22407481 0.52900004
-0.16930817 -0.22321118 0.52700001
-0.16754276 -0.22277166 0.52600002
-0.16578335 -0.22233258 0.52500004
-0.16434295 -0.22231743 0.52500004
-0.16259272 -0.22187926 0.52400005
-0.16054094 -0.22101809 0.52200001
-0.15850057 -0.22015744 0.52000004
-0.15647161 -0.21929726 0.51800001
-0.15445401 -0.21843754 0.51600003
-0.15244779 -0.21757826 0.514
-0.15104064 -0.217566 0.514
-0.14934279 -0.21713084 0.51300001
-0.14765078 -0.21669604 0.51200002
-0.14596458 -0.21626161 0.51100004
-0.14513296 -0.21709713 0.51300001
-0.14401059 -0.2175097 0.514
-0.1423282 -0.21707624 0.51300001
-0.14092627 -0.21706624 0.51300001
-0.1387088 -0.21578726 0.51000005
-0.13704649 -0.2153548 0.509
-0.13538994 -0.21492271 0.50800002
-0.13426669 -0.21533699 0.509
-0.13339934 -0.21617462 0.51100004
-0.13200469 -0.21616638 0.51100004
-0.13009912 -0.21531235 0.509
-0.12845755 -0.21488166 0.50800002
-0.12682171 -0.21445122 0.50700003
-0.12519157 -0.21402109 0.50600004
-0.1238118 -0.21401417 0.50600004
-0.12194832 -0.21316159 0.50400001
-0.12057441 -0.21315514 0.50400001
-0.11920074 -0.21314892 0.50400001
-0.11829483 -0.21398874 0.50600004
-0.11645397 -0.21313713 0.50400001
-0.11485253 -0.21270868 0.50300002
-0.11303111 -0.21185759 0.50100005
-0.11144365 -0.21142957 0.5
-0.0991937 -0.21139133 0.5
-0.096472897 -0.21138461 0.5
-0.044826742 -0.21133327 0.5
-0.043642078 -0.21217839 0.50200003
-0.042278118 -0.21217822 0.50200003
-0.040914163 -0.21217807 0.50200003
-0.039629001 -0.21260059 0.50300002
-0.038262345 -0.2126005 0.50300002
-0.036895689 -0.2126004 0.50300002
-0.035670303 -0.21344565 0.505
-0.034434058 -0.21429095 0.50700003
-0.033121746 -0.21471354 0.50800002
-0.031679038 -0.21429087 0.50700003
-0.030241763 -0.21386817 0.50600004
-0.028924026 -0.21429083 0.50700003
-0.027600851 -0.2147135 0.50800002
-0.026272245 -0.21513616 0.509
-0.024938213 -0.21555887 0.51000005
-0.02364492 -0.2164042 0.51200002
-0.022297297 -0.21682689 0.51300001
-0.02090349 -0.21682692 0.51300001
-0.019471658 -0.21640427 0.51200002
-0.018115882 -0.21682696 0.51300001
-0.016722078 -0.21682699 0.51300001
-0.015417912 -0.21809505 0.51600003
-0.014043117 -0.21851774 0.51700002
-0.01271178 -0.21978575 0.52000004
-0.011364141 -0.22105379 0.523
-0.009943163 -0.22105381 0.523
-0.0084895967 -0.22020853 0.52100003
-0.0070740525 -0.22020853 0.52100003
-0.0056910911 -0.22147655 0.52400005
-0.0042918264 -0.22274455 0.52700001
-0.0028654067 -0.22316721 0.528
-0.0014335527 -0.2235899 0.52900004
3.7423943e-06 -0.22443525 0.53100002
0.0014464572 -0.22443521 0.53100002
0.0029000544 -0.22528057 0.53300005
0.0043563615 -0.22570322 0.53400004
0.0058507258 -0.22739387 0.53800005
0.0073124589 -0.22739384 0.53800005
0.0087905014 -0.22781649 0.53900003
0.010293001 -0.22866179 0.54100001
0.011828113 -0.22992977 0.54400003
0.013379525 -0.23119771 0.54700005
0.014920061 -0.23204301 0.54900002
0.016501362 -0.23331098 0.55200005
0.018098958 -0.23457891 0.55500001
0.019677531 -0.23542422 0.55700004
0.021305017 -0.23669216 0.56
0.022948805 -0.23796016 0.56300002
0.024652369 -0.23965074 0.56700003
0.026285283 -0.24049607 0.56900001
0.027977977 -0.24176405 0.57200003
0.029635338 -0.24260934 0.574
0.031412266 -0.24429999 0.57800001
0.033096805 -0.24514534 0.58000004
0.034792207 -0.24599065 0.58200002
0.036498487 -0.24683604 0.58400005
0.038280848 -0.24810402 0.58700001
0.03987572 -0.2481041 0.58700001
0.041611891 -0.2489495 0.58900005
0.043358929 -0.2497949 0.59100002
0.045192931 -0.25106302 0.59400004
0.047043234 -0.25233111 0.597
0.048828337 -0.25317663 0.59900004
0.050624304 -0.25402212 0.60100001
0.052344207 -0.25444505 0.60200006
0.054159217 -0.2552906 0.60400003
0.056169875 -0.25698155 0.60800004
0.057916973 -0.25740451 0.60900003
0.059767339 -0.25825021 0.611
0.061427522 -0.25825062 0.611
0.063294232 -0.25909641 0.61300004
0.065171815 -0.25994223 0.61500001
0.06695161 -0.26036549 0.61600006
0.068736851 -0.26078874 0.61700004
0.070527561 -0.26121208 0.61800003
0.072323717 -0.26163545 0.61900002
0.074005783 -0.26163623 0.61900002
0.075565606 -0.26121444 0.61800003
0.076870032 -0.25994727 0.61500001
0.078285918 -0.25910291 0.61300004
0.079951815 -0.25910398 0.61300004
0.081750892 -0.2595278 0.61400002
0.0832837 -0.25910631 0.61300004
0.084672555 -0.25826225 0.611
0.086474478 -0.25868633 0.61200005
0.088137873 -0.25868779 0.61200005
0.089948058 -0.25911206 0.61300004
0.091464803 -0.25869104 0.61200005
0.093432724 -0.25953823 0.61400002
0.094791993 -0.25869471 0.61200005
0.096455678 -0.25869671 0.61200005
0.09779878 -0.25785339 0.61000001
0.099620223 -0.25827834 0.611
0.10161294 -0.25912616 0.61300004
0.10327965 -0.25912863 0.61300004
0.10494643 -0.25913125 0.61300004
0.1064394 -0.25871128 0.61200005
0.10792702 -0.25829142 0.611
0.10958866 -0.25829446 0.611
0.11106832 -0.25787494 0.61000001
0.11309707 -0.2587238 0.61200005
0.11476174 -0.25872728 0.61200005
0.11642655 -0.25873095 0.61200005
0.11770555 -0.25788924 0.61000001
0.11936517 -0.25789323 0.61000001
0.12102494 -0.25789747 0.61000001
0.12268483 -0.25790182 0.61000001
0.12434488 -0.25790641 0.61000001
0.1264182 -0.25875676 0.61200005
0.12808402 -0.25876176 0.61200005
0.12996198 -0.25918972 0.61300004
0.13120139 -0.25834948 0.611
0.13308245 -0.25877792 0.61200005
0.13430861 -0.25793806 0.61000001
0.13619278 -0.25836694 0.611
0.13740569 -0.25752747 0.60900003
0.13860798 -0.25668827 0.60700005
0.14003059 -0.25627208 0.60600001
0.14168182 -0.25627902 0.60600001
0.1435698 -0.25670916 0.60700005
0.14498496 -0.25629371 0.60600001
0.14639492 -0.25587854 0.60500002
0.14804439 -0.25588652 0.60500002
0.150189 -0.25674078 0.60700005
0.1515943 -0.25632638 0.60600001
0.15324731 -0.25633523 0.60600001
0.15515624 -0.25676742 0.60700005
0.15681261 -0.25677696 0.60700005
0.15820819 -0.25636366 0.60600001
0.15959865 -0.25595072 0.60500002
0.16151704 -0.25638422 0.60600001
0.16263345 -0.2555488 0.60400003
0.1645553 -0.25598297 0.60500002
0.16593347 -0.25557125 0.60400003
0.16702914 -0.25473672 0.60200006
0.16839443 -0.2543256 0.60100001
0.16975467 -0.25391483 0.60000002
0.17253816 -0.25562048 0.60400003
0.17390196 -0.25521046 0.60300004
0.17526071 -0.2548008 0.60200006
0.17602673 -0.25354493 0.59900004
0.17796317 -0.25398248 0.60000002
0.17990556 -0.25442055 0.60100001
0.18155183 -0.25443569 0.60100001
0.18350346 -0.25487468 0.60200006
0.18453836 -0.25404388 0.60000002
0.18649372 -0.25448373 0.60100001
0.187516 -0.25365371 0.59900004
0.18947522 -0.25409448 0.60000002
0.19016634 -0.25284168 0.597
0.19180542 -0.25285983 0.597
0.1934451 -0.25287846 0.597
0.19606575 -0.25416842 0.60000002
0.19738537 -0.25376445 0.59900004
0.19870016 -0.25336096 0.59800005
0.19967507 -0.25253415 0.59600002
0.20131524 -0.25255522 0.59600002
0.20295607 -0.25257683 0.59600002
0.20459759 -0.25259897 0.59600002
0.20623986 -0.25262165 0.59600002
0.20753412 -0.25222099 0.59500003
0.20882356 -0.25182077 0.59400004
0.20975395 -0.25099707 0.59200001
0.21067411 -0.25017378 0.59000003
0.21230373 -0.25019905 0.59000003
0.21465935 -0.25107309 0.59200001
0.21629614 -0.25109962 0.59200001
0.2179338 -0.25112677 0.59200001
0.21883057 -0.25030604 0.59000003
0.21896985 -0.24863717 0.58600003
0.22097006 -0.24909024 0.58700001
0.22335596 -0.24996844 0.58900005
0.22575396 -0.25084752 0.59100002
0.22662498 -0.25002947 0.58900005
0.22864853 -0.25048554 0.59000003
0.23106898 -0.251367 0.59200001
0.23192926 -0.25055078 0.59000003
0.23238356 -0.24931026 0.58700001
0.23401827 -0.24934445 0.58700001
0.23645703 -0.25022906 0.58900005
0.23729111 -0.24941504 0.58700001
0.23852226 -0.24902649 0.58600003
0.23933916 -0.24821356 0.58400005
0.24138395 -0.24867637 0.58500004
0.24260479 -0.24828981 0.58400005
0.24423952 -0.2483291 0.58400005
0.24629651 -0.24879447 0.58500004
0.24878427 -0.24968617 0.58700001
0.24872483 -0.24802636 0.583
0.2482149 -0.24594133 0.57800001
0.25027174 -0.24640988 0.57900006
0.25320572 -0.24773069 0.58200002
0.25747168 -0.25033003 0.588
0.26001021 -0.251228 0.59000003
0.26167449 -0.25127536 0.59000003
0.26200131 -0.25004575 0.58700001
0.2632111 -0.24966863 0.58600003
0.2644169 -0.24929233 0.58500004
0.26789275 -0.25104791 0.58900005
0.27002004 -0.25152621 0.59000003
0.27491766 -0.25456411 0.597
0.27615014 -0.25419229 0.59600002
0.27877727 -0.25510108 0.59800005
0.28141764 -0.25601131 0.60000002
0.28501505 -0.2577765 0.60400003
0.28816253 -0.25911668 0.60700005
0.29037392 -0.2596046 0.60800004
0.29259306 -0.26009381 0.60900003
0.29433668 -0.2601572 0.60900003
0.2965686 -0.260649 0.61000001
0.29929751 -0.26156959 0.61200005
0.30154815 -0.26206428 0.61300004
0.3028172 -0.26170513 0.61200005
0.30607346 -0.26305792 0.61500001
0.30884889 -0.26398483 0.61700004
0.31012785 -0.26362953 0.61600006
0.31140348 -0.26327524 0.61500001
0.3126758 -0.26292202 0.61400002
0.3159934 -0.26428315 0.61700004
0.31675574 -0.26350409 0.61500001
0.31802705 -0.26315448 0.61400002
0.31877434 -0.26237723 0.61200005
0.31951264 -0.26160076 0.61000001
0.32129544 -0.2616832 0.61000001
0.32149217 -0.26047966 0.60700005
0.32220668 -0.25970593 0.60500002
0.32237679 -0.25850368 0.60200006
0.32414755 -0.25859067 0.60200006
0.32700405 -0.25953853 0.60400003
0.32824233 -0.2591989 0.60300004
0.33111969 -0.26015049 0.60500002
0.33291149 -0.26024389 0.60500002
0.33415329 -0.25990859 0.60400003
0.33483618 -0.25914404 0.60200006
0.33606964 -0.25881106 0.60100001
0.33673832 -0.25804859 0.59900004
0.33739847 -0.25728703 0.597
0.33975455 -0.25781992 0.59800005
0.34212011 -0.25835475 0.59900004
0.34392118 -0.25846016 0.59900004
0.34572586 -0.2585673 0.59900004
0.34753424 -0.25867617 0.59900004
0.34468067 -0.25533053 0.59100002
0.34705865 -0.25587368 0.59200001
0.34885734 -0.25598657 0.59200001
0.35006759 -0.25566867 0.59100002
0.34710807 -0.25232264 0.583
0.34589905 -0.25027427 0.57800001
0.34767094 -0.25039172 0.57800001
0.34884247 -0.25007766 0.57700002
0.3542656 -0.25280043 0.583
0.3603408 -0.25596151 0.59000003
0.36093912 -0.25522113 0.588
0.36091262 -0.25404766 0.58500004
0.36273217 -0.25417835 0.58500004
0.36580274 -0.25518054 0.58700001
0.36513272 -0.25357604 0.583
0.36758968 -0.25414777 0.58400005
0.37005773 -0.25472206 0.58500004
0.37698719 -0.25834867 0.59300005
0.37694442 -0.25718644 0.59000003
0.37431964 -0.25428033 0.583
0.37939852 -0.25660992 0.588
0.3851631 -0.25938109 0.59400004
0.39031973 -0.26172078 0.59900004
0.38372728 -0.25619605 0.58600003
0.38824362 -0.25810364 0.59000003
0.39411399 -0.26089135 0.59600002
0.4006936 -0.26412293 0.60300004
0.40265048 -0.26429296 0.60300004
0.4039425 -0.26402703 0.60200006
0.40590858 -0.26420203 0.60200006
0.41059127 -0.26613641 0.60600001
0.40986025 -0.26456022 0.60200006
0.40910941 -0.26298437 0.59800005
0.40833887 -0.26140887 0.59400004
0.42205453 -0.26908198 0.611
0.42062038 -0.26707309 0.60600001
0.42473957 -0.2685923 0.60900003
0.4309479 -0.27032056 0.61200005
0.43301731 -0.27052778 0.61200005
0.42971492 -0.26317996 0.59300005
-0.4275538 -0.26883712 0.60400003
-0.37548852 -0.27730608 0.63700002
-0.36534128 -0.27109089 0.62300003
-0.35761672 -0.26662275 0.61300004
-0.34057292 -0.25759566 0.59300005
-0.24507813 -0.23540582 0.54900002
-0.24707587 -0.23878969 0.55700004
-0.2481484 -0.24131587 0.56300002
-0.24787472 -0.24255632 0.56600004
-0.24671532 -0.24294022 0.56700003
-0.24468715 -0.24246804 0.56600004
-0.24180697 -0.2411402 0.56300002
-0.24065177 -0.2415266 0.56400001
-0.23949228 -0.24191368 0.565
-0.23790747 -0.24187332 0.565
-0.23357327 -0.24218485 0.56600004
-0.23158072 -0.24171966 0.565
-0.23081626 -0.24253868 0.56700003
-0.22842461 -0.24164736 0.565
-0.22845429 -0.24332286 0.56900001
-0.22646916 -0.24286069 0.56800002
-0.22607446 -0.24410944 0.57100004
-0.22369839 -0.24322122 0.56900001
-0.22250563 -0.24361618 0.57000005
-0.22208342 -0.24486631 0.57300001
-0.22087601 -0.24526225 0.574
-0.2208101 -0.24694045 0.57800001
-0.21920596 -0.24691014 0.57800001
-0.21873219 -0.2481619 0.58100003
-0.21674795 -0.24770568 0.58000004
-0.21551201 -0.24810421 0.58100003
-0.21353516 -0.24764939 0.58000004
-0.21193004 -0.24762212 0.58000004
-0.20960058 -0.24674173 0.57800001
-0.20800272 -0.24671578 0.57800001
-0.20604861 -0.24626364 0.57700002
-0.20232908 -0.24367833 0.57100004
-0.19723716 -0.23938727 0.56100005
-0.19220115 -0.23509756 0.551
-0.19033563 -0.2346489 0.55000001
-0.18813297 -0.23377423 0.54800004
-0.18457985 -0.23119402 0.54200006
-0.18207379 -0.22989425 0.53900003
-0.17991994 -0.22902171 0.537
-0.17777771 -0.22814974 0.53500003
-0.17564709 -0.22727844 0.53300005
-0.17352806 -0.22640768 0.53100002
-0.17109652 -0.22511113 0.528
-0.16868204 -0.22381525 0.52500004
-0.16692168 -0.22337256 0.52400005
-0.16548313 -0.22335657 0.52400005
-0.16435815 -0.22376722 0.52500004
-0.16229717 -0.2228996 0.523
-0.16055524 -0.22245866 0.52200001
-0.15820962 -0.22116593 0.51900005
-0.15648507 -0.22072592 0.51800001
-0.15416771 -0.21943419 0.51500005
-0.15275708 -0.21942115 0.51500005
-0.15105295 -0.21898238 0.514
-0.14964585 -0.21897005 0.514
-0.14823915 -0.21895806 0.514
-0.14683281 -0.21894643 0.514
-0.14514391 -0.21850915 0.51300001
