# .PCD v0.7 - Point Cloud Data file format
VERSION 0.7
FIELDS x y z
SIZE 4 4 4
TYPE F F F
COUNT 1 1 1
WIDTH 1374
HEIGHT 1
VIEWPOINT 0 0 0 1 0 0 0
POINTS 1374
DATA ascii
0.21824557 -0.078384273 0.58200002
0.22057812 -0.078652091 0.58400005
0.22101976 -0.078246653 0.58100003
0.21186741 -0.074474528 0.55300003
-0.018788457 -0.086386636 0.625
-0.016560983 -0.083761506 0.60600001
-0.012662928 -0.091504559 0.66200006
-0.011869824 -0.10007522 0.72400004
-0.0098497448 -0.099661186 0.72100002
-0.0078023216 -0.098694116 0.71400005
-0.0058013345 -0.097865149 0.708
-0.003833133 -0.097036071 0.70200002
-0.0018949946 -0.09606865 0.69500005
4.8787529e-06 -0.095101096 0.68800002
0.0018692208 -0.094271675 0.68200004
0.0037117014 -0.093718596 0.67800003
0.0055158827 -0.092888959 0.67200005
0.0072981827 -0.092197448 0.66700006
0.0090531213 -0.09150584 0.66200006
0.010797101 -0.090952344 0.65800005
0.012538316 -0.090536974 0.65500003
0.014284965 -0.090259746 0.65300006
0.01599602 -0.089844182 0.65000004
0.017717961 -0.089566745 0.648
0.019428911 -0.089289226 0.64600003
0.021128859 -0.089011602 0.64400005
0.022888884 -0.089010321 0.64400005
0.024610557 -0.088870704 0.64300001
0.026326682 -0.088731013 0.64200002
0.027949773 -0.088314816 0.63900006
0.029649308 -0.088174917 0.63800001
0.031392489 -0.088173151 0.63800001
0.033135563 -0.088171281 0.63800001
0.034769189 -0.087892927 0.63600004
0.036449168 -0.087752685 0.63500005
0.038063429 -0.087474152 0.63300002
0.039666642 -0.087195545 0.63100004
0.041324388 -0.087055042 0.63000005
0.042976528 -0.086914442 0.62900001
0.044765189 -0.087050132 0.63000005
0.046485376 -0.08704754 0.63000005
0.048128884 -0.086906686 0.62900001
0.049846023 -0.086903922 0.62900001
0.051399056 -0.086624749 0.62700003
0.05311041 -0.086621813 0.62700003
0.054384422 -0.085928068 0.62200004
0.055630967 -0.085234269 0.61700004
0.056664266 -0.084264159 0.61000001
0.058137294 -0.083984725 0.60800004
0.059599228 -0.083705217 0.60600001
0.061252214 -0.083701901 0.60600001
0.062385995 -0.083007932 0.60100001
0.063811906 -0.082728267 0.59900004
0.065226711 -0.08244855 0.597
0.066742405 -0.082306892 0.59600002
0.068137728 -0.082027085 0.59400004
0.06940452 -0.081609137 0.59100002
0.070774913 -0.081329249 0.58900005
0.072379969 -0.081325457 0.58900005
0.0738592 -0.081183538 0.588
0.075204447 -0.080903515 0.58600003
0.076669626 -0.0807615 0.58500004
0.078129165 -0.080619447 0.58400005
0.079856038 -0.080753416 0.58500004
0.081309684 -0.080611251 0.58400005
0.082615703 -0.08033102 0.58200002
0.08405529 -0.080188788 0.58100003
0.085341819 -0.079908505 0.57900006
0.086917467 -0.079904199 0.57900006
0.088340051 -0.079761848 0.57800001
0.089912519 -0.079757452 0.57800001
0.091326497 -0.079615042 0.57700002
0.092573807 -0.079334617 0.57500005
0.094137445 -0.079330117 0.57500005
0.095534392 -0.079187594 0.574
0.096925706 -0.079045072 0.57300001
0.097967595 -0.07862664 0.57000005
0.099167541 -0.078346148 0.56800002
0.100711 -0.078341506 0.56800002
0.10207421 -0.07819891 0.56700003
0.10343176 -0.078056306 0.56600004
0.10459819 -0.077775784 0.56400001
0.10612988 -0.077771053 0.56400001
0.10747046 -0.077628404 0.56300002
0.10899899 -0.077623628 0.56300002
0.11013468 -0.077343114 0.56100005
0.1114583 -0.07720045 0.56
0.11297803 -0.077195637 0.56
0.11449755 -0.077190809 0.56
0.11580968 -0.07704813 0.55900002
0.11690629 -0.076767638 0.55700004
0.11841702 -0.076762795 0.55700004
0.11971224 -0.076620132 0.55600005
0.12121988 -0.076615296 0.55600005
0.12250654 -0.07647264 0.55500001
0.1242345 -0.076605566 0.55600005
0.12506306 -0.076187387 0.55300003
0.12679064 -0.076320313 0.55400002
0.12759712 -0.075902209 0.551
0.12909003 -0.075897396 0.551
0.13058276 -0.07589259 0.551
0.13183561 -0.075750053 0.55000001
0.13308288 -0.075607561 0.54900002
0.13407944 -0.075327381 0.54700005
0.13580847 -0.075460352 0.54800004
0.13729225 -0.075455621 0.54800004
0.13928233 -0.075726286 0.55000001
0.14051525 -0.075583905 0.54900002
0.14200127 -0.075579226 0.54900002
0.14322579 -0.075436927 0.54800004
0.14444478 -0.075294659 0.54700005
0.14592499 -0.075290084 0.54700005
0.14740507 -0.075285539 0.54700005
0.14861286 -0.075143397 0.546
0.15009002 -0.075138927 0.546
0.15184468 -0.075272106 0.54700005
0.15388493 -0.075542897 0.54900002
0.15536994 -0.075538531 0.54900002
0.15656912 -0.075396612 0.54800004
0.15805124 -0.075392321 0.54800004
0.16011553 -0.075663231 0.55000001
0.16130914 -0.075521469 0.54900002
0.16279379 -0.075517341 0.54900002
0.16397916 -0.075375706 0.54800004
0.16606487 -0.075646766 0.55000001
0.16785677 -0.075780325 0.551
0.16965407 -0.075913951 0.55200005
0.17114668 -0.075910084 0.55200005
0.1732648 -0.0761813 0.55400002
0.17476286 -0.076177575 0.55400002
0.17626092 -0.076173916 0.55400002
0.17775902 -0.076170325 0.55400002
0.17925714 -0.076166809 0.55400002
0.18075535 -0.076163381 0.55400002
0.18291156 -0.076434977 0.55600005
0.18507861 -0.076706618 0.55800003
0.18692222 -0.076840885 0.55900002
0.18843424 -0.076837763 0.55900002
0.18994635 -0.076834738 0.55900002
0.1921436 -0.077106707 0.56100005
0.19469698 -0.077516176 0.56400001
0.19691886 -0.077788286 0.56600004
0.1995023 -0.078197919 0.56900001
0.20174885 -0.078470193 0.57100004
0.20329435 -0.078467734 0.57100004
0.2044813 -0.078327961 0.57000005
0.20566304 -0.078188308 0.56900001
0.20793205 -0.078461014 0.57100004
0.21094587 -0.079008646 0.57500005
0.21324246 -0.079281561 0.57700002
0.21555015 -0.079554588 0.57900006
0.21786898 -0.079827741 0.58100003
0.22095436 -0.080375813 0.58500004
0.22101843 -0.079824857 0.58100003
-0.020331457 -0.087384008 0.62
-0.015248321 -0.078647606 0.55800003
-0.013895397 -0.079635091 0.565
-0.01216487 -0.089644 0.63600004
-0.011819939 -0.10162549 0.72100002
-0.0098218396 -0.10134422 0.71900004
-0.0078018578 -0.10063999 0.71400005
-0.0058009904 -0.099794678 0.708
-0.0038329051 -0.098949254 0.70200002
-0.0018948818 -0.097962752 0.69500005
4.8855536e-06 -0.097117081 0.68900001
0.0018718503 -0.096271306 0.68300003
0.0037114809 -0.095566377 0.67800003
0.0055073467 -0.094579414 0.671
0.0073086903 -0.094156183 0.66800004
0.0090662576 -0.093450926 0.66300005
0.010845684 -0.093168437 0.66100001
0.012556714 -0.092462987 0.65600002
0.014284118 -0.092039339 0.65300006
0.015970467 -0.091474645 0.64900005
0.017689575 -0.091191754 0.64700001
0.019367617 -0.090767823 0.64400005
0.021127611 -0.090766609 0.64400005
0.022851998 -0.09062437 0.64300001
0.024570838 -0.090482019 0.64200002
0.02628413 -0.090339579 0.64100003
0.027904393 -0.089915171 0.63800001
0.029601105 -0.089772545 0.63700002
0.031292256 -0.089629836 0.63600004
0.033029765 -0.089627936 0.63600004
0.034712501 -0.089485042 0.63500005
0.03638966 -0.089342035 0.634
0.038061224 -0.08919894 0.63300002
0.039601486 -0.088773943 0.63000005
0.041322012 -0.088771597 0.63000005
0.042905737 -0.088487335 0.62800002
0.044691566 -0.088625707 0.62900001
0.046261366 -0.088341296 0.62700003
0.047973115 -0.088338599 0.62700003
0.049684711 -0.088335805 0.62700003
0.051396146 -0.088332906 0.62700003
0.053107414 -0.088329934 0.62700003
0.054556221 -0.08790426 0.62400001
0.055627853 -0.086915068 0.61700004
0.056753989 -0.086066701 0.611
0.05813406 -0.085640907 0.60800004
0.05959592 -0.085355908 0.60600001
0.061147768 -0.085211709 0.60500002
0.062486373 -0.084785759 0.60200006
0.063808411 -0.08435975 0.59900004
0.065223165 -0.084074549 0.597
0.06662681 -0.083789282 0.59500003
0.06801936 -0.083503991 0.59300005
0.069400787 -0.083218634 0.59100002
0.070650972 -0.082792439 0.588
0.072253235 -0.082788602 0.588
0.073729694 -0.082643919 0.58700001
0.075200491 -0.082499184 0.58600003
0.076665618 -0.082354389 0.58500004
0.078125112 -0.082209557 0.58400005
0.079578899 -0.082064673 0.583
0.081166282 -0.082060501 0.583
0.082611486 -0.081915528 0.58200002
0.083906367 -0.081629775 0.58000004
0.085190125 -0.081343986 0.57800001
0.086612895 -0.081198916 0.57700002
0.088182829 -0.081194513 0.57700002
0.089596979 -0.08104936 0.57600003
0.091005482 -0.080904178 0.57500005
0.092408292 -0.080758952 0.574
0.093641758 -0.080473021 0.57200003
0.095196947 -0.080468439 0.57200003
0.0965828 -0.080323145 0.57100004
0.097791091 -0.080037162 0.56900001
0.099162884 -0.079891838 0.56800002
0.10052901 -0.079746485 0.56700003
0.1022495 -0.079882383 0.56800002
0.10342703 -0.07959637 0.56600004
0.10496435 -0.079591587 0.56600004
0.10631327 -0.079446159 0.565
0.10784744 -0.079441331 0.565
0.10899418 -0.079155281 0.56300002
0.10993354 -0.078728661 0.56
0.11105543 -0.078442663 0.55800003
0.11256971 -0.078437798 0.55800003
0.11408378 -0.078432932 0.55800003
0.1158048 -0.078568585 0.55900002
0.11711129 -0.078423135 0.55800003
0.11862474 -0.078418225 0.55800003
0.11970737 -0.078132257 0.55600005
0.12099697 -0.077986822 0.55500001
0.12228093 -0.077841401 0.55400002
0.12400617 -0.077976994 0.55500001
0.1250582 -0.077691101 0.55300003
0.12632805 -0.07754574 0.55200005
0.12712914 -0.077119425 0.54900002
0.1290852 -0.077395499 0.551
0.13034093 -0.077250175 0.55000001
0.1318308 -0.077245325 0.55000001
0.13283569 -0.076959617 0.54800004
0.13407467 -0.076814376 0.54700005
0.13580371 -0.076950014 0.54800004
0.13753802 -0.077085637 0.54900002
0.13927759 -0.077221274 0.55000001
0.14051054 -0.077076122 0.54900002
0.14199659 -0.077071406 0.54900002
0.14322115 -0.076926321 0.54800004
0.14417611 -0.076640926 0.546
0.14565362 -0.076636299 0.546
0.14713103 -0.076631717 0.546
0.14915271 -0.076907851 0.54800004
0.15036044 -0.076762989 0.54700005
0.1523954 -0.077039152 0.54900002
0.15360023 -0.076894373 0.54800004
0.15536554 -0.077030264 0.54900002
0.1562791 -0.076745287 0.54700005
0.15833539 -0.077021554 0.54900002
0.15982018 -0.077017277 0.54900002
0.16130494 -0.077013038 0.54900002
0.16249315 -0.076868609 0.54800004
0.16427431 -0.077004753 0.54900002
0.16575892 -0.077000692 0.54900002
0.16724356 -0.076996706 0.54900002
0.16872814 -0.076992758 0.54900002
0.17114285 -0.07740961 0.55200005
0.17294827 -0.077546008 0.55300003
0.17444372 -0.077542253 0.55300003
0.17562097 -0.077398352 0.55200005
0.17743462 -0.077534966 0.55300003
0.1789301 -0.077531427 0.55300003
0.18107821 -0.07780838 0.55500001
0.18323718 -0.078085385 0.55700004
0.18540704 -0.078362443 0.55900002
0.18658465 -0.078219041 0.55800003
0.18809408 -0.078215927 0.55800003
0.18994336 -0.078353047 0.55900002
0.19248319 -0.0787706 0.56200004
0.19434896 -0.0789079 0.56300002
0.19656824 -0.079185449 0.565
0.19844785 -0.079322942 0.56600004
0.20068638 -0.079600662 0.56800002
0.20222384 -0.079598203 0.56800002
0.2034028 -0.079455733 0.56700003
0.20529944 -0.079593658 0.56800002
0.20829417 -0.080152065 0.57200003
0.21131077 -0.08071056 0.57600003
0.21287107 -0.08070869 0.57600003
0.21517619 -0.08098717 0.57800001
0.21824239 -0.081546009 0.58200002
0.22133063 -0.082104959 0.58600003
0.22101715 -0.081403069 0.58100003
-0.020199081 -0.088498674 0.61600006
-0.01842553 -0.088068828 0.61300004
-0.015274733 -0.080311693 0.55900002
-0.014361816 -0.083904371 0.58400005
-0.013640087 -0.089652114 0.62400001
-0.012374525 -0.0929574 0.64700001
-0.011638908 -0.10200967 0.71000004
-0.0098349089 -0.10344708 0.72000003
-0.0078123147 -0.10272922 0.71500003
-0.0058170273 -0.10201124 0.71000004
-0.003838134 -0.1010058 0.70300001
-0.0019029465 -0.10028757 0.69800001
4.8852594e-06 -0.098994523 0.68900001
0.0018744781 -0.098276079 0.68400002
0.003705783 -0.097270153 0.67700005
0.0055234302 -0.096695162 0.67300004
0.0073191901 -0.096120067 0.66900003
0.0090930602 -0.095544867 0.66500002
0.01086144 -0.095113233 0.66200006
0.0125751 -0.094394132 0.65700001
0.014305135 -0.093962319 0.65400004
0.015969509 -0.09324304 0.64900005
0.017715853 -0.093098342 0.648
0.019426601 -0.092809886 0.64600003
0.021191958 -0.092808664 0.64600003
0.022886172 -0.092520006 0.64400005
0.024607642 -0.092374913 0.64300001
0.026241565 -0.091942415 0.64000005
0.027946474 -0.091797136 0.63900006
0.029692287 -0.091795415 0.63900006
0.031388797 -0.091649927 0.63800001
0.033079747 -0.091504358 0.63700002
0.034710452 -0.091215052 0.63500005
0.036387514 -0.091069289 0.634
0.038119115 -0.091067091 0.634
0.03966203 -0.090633884 0.63100004
0.041319594 -0.090487875 0.63000005
0.042903244 -0.090198137 0.62800002
0.044617925 -0.090195574 0.62800002
0.046258684 -0.090049297 0.62700003
0.047970347 -0.090046547 0.62700003
0.04976109 -0.090187334 0.62800002
0.051475164 -0.090184405 0.62800002
0.053104378 -0.090037778 0.62700003
0.054465689 -0.089460298 0.62300003
0.055714842 -0.088739179 0.61800003
0.056843661 -0.087874435 0.61200005
0.05803518 -0.087153263 0.60700005
0.059494238 -0.086862765 0.60500002
0.061043281 -0.086715803 0.60400003
0.062482897 -0.086425208 0.60200006
0.064124435 -0.086421661 0.60200006
0.065438055 -0.085987389 0.59900004
0.066959068 -0.085840173 0.59800005
0.068130337 -0.085262276 0.59400004
0.069631867 -0.085114963 0.59300005
0.070887446 -0.084680527 0.59000003
0.072495095 -0.084676638 0.59000003
0.073976934 -0.084529161 0.58900005
0.075581446 -0.084525138 0.58900005
0.076923646 -0.084234044 0.58700001
0.07838852 -0.084086418 0.58600003
0.079711229 -0.083795272 0.58400005
0.081301264 -0.083791032 0.58400005
0.082607202 -0.083499797 0.58200002
0.08419136 -0.083495468 0.58200002
0.085333161 -0.083060727 0.57900006
0.086758591 -0.082912847 0.57800001
0.088178374 -0.082764946 0.57700002
0.089592487 -0.082617022 0.57600003
0.091000959 -0.082469061 0.57500005
0.092564717 -0.082464471 0.57500005
0.093800865 -0.082173035 0.57300001
0.095192328 -0.082024984 0.57200003
0.096578129 -0.081876911 0.57100004
0.098130114 -0.081872188 0.57100004
0.099681892 -0.081867442 0.57100004
0.10123344 -0.081862658 0.57100004
0.10278475 -0.08185783 0.57100004
0.1039704 -0.081566274 0.56900001
0.10514496 -0.081274718 0.56700003
0.10649659 -0.081126519 0.56600004
0.10803344 -0.081121609 0.56600004
0.10957007 -0.081116691 0.56600004
0.11051757 -0.080681816 0.56300002
0.1116476 -0.080390297 0.56100005
0.11276655 -0.080098771 0.55900002
0.11428331 -0.080093831 0.55900002
0.11600702 -0.080232136 0.56
0.11752609 -0.080227159 0.56
0.11883236 -0.080078922 0.55900002
0.11970244 -0.079644203 0.55600005
0.12121004 -0.079639234 0.55600005
0.12271745 -0.079634249 0.55600005
0.12422466 -0.079629272 0.55600005
0.12527941 -0.079337873 0.55400002
0.12678082 -0.07933291 0.55400002
0.12781893 -0.07904157 0.55200005
0.12954885 -0.079179816 0.55300003
0.13057303 -0.078888528 0.551
0.13182591 -0.078740448 0.55000001
0.13307321 -0.078592397 0.54900002
0.13431494 -0.078444377 0.54800004
0.1362945 -0.078725807 0.55000001
0.13778374 -0.078720964 0.55000001
0.13952601 -0.078859247 0.551
0.14050578 -0.078568205 0.54900002
0.1417332 -0.078420326 0.54800004
0.14295511 -0.078272499 0.54700005
0.1444355 -0.078267798 0.54700005
0.14591576 -0.078263119 0.54700005
0.14739592 -0.078258492 0.54700005
0.14887598 -0.078253873 0.54700005
0.15035592 -0.078249305 0.54700005
0.15211332 -0.078387812 0.54800004
0.15359576 -0.078383319 0.54800004
0.15507814 -0.078378864 0.54800004
0.15656044 -0.078374453 0.54800004
0.15804265 -0.078370087 0.54800004
0.15981591 -0.078508779 0.54900002
0.16188833 -0.078790501 0.551
0.16337851 -0.078786284 0.551
0.16486862 -0.078782119 0.551
0.16605681 -0.078635037 0.55000001
0.16723958 -0.078488044 0.54900002
0.16903155 -0.078627035 0.55000001
0.17113899 -0.078909039 0.55200005
0.17263174 -0.078905188 0.55200005
0.17412454 -0.078901418 0.55200005
0.17593549 -0.079040639 0.55300003
0.17775187 -0.079179935 0.55400002
0.1795737 -0.079319298 0.55500001
0.18140106 -0.079458743 0.55600005
0.18356279 -0.079741143 0.55800003
0.18507211 -0.079737835 0.55800003
0.1862471 -0.079591706 0.55700004
0.18809098 -0.079731464 0.55800003
0.19061996 -0.080157071 0.56100005
0.19316526 -0.080582745 0.56400001
0.19538176 -0.080865629 0.56600004
0.19726132 -0.081005722 0.56700003
0.19949707 -0.08128877 0.56900001
0.20103717 -0.081286207 0.56900001
0.20257749 -0.081283763 0.56900001
0.20375927 -0.081138581 0.56800002
0.20638159 -0.081564911 0.57100004
0.20902041 -0.081991337 0.574
0.2116757 -0.082417876 0.57700002
0.21323881 -0.08241602 0.57700002
0.21591906 -0.08284279 0.58000004
0.21861583 -0.083269671 0.583
0.22132917 -0.083696686 0.58600003
0.22063547 -0.082838416 0.58000004
-0.027684098 -0.087241828 0.59600002
-0.021881064 -0.090175554 0.61600006
-0.02032901 -0.090762384 0.62
-0.019205872 -0.093545057 0.63900006
-0.016175477 -0.086665623 0.59200001
-0.013814121 -0.092523307 0.63200003
-0.012201648 -0.09340249 0.63800001
-0.011523455 -0.10291919 0.70300001
-0.0098069916 -0.10511585 0.71800005
-0.0078336895 -0.10496999 0.71700001
-0.0058084796 -0.10379919 0.70900005
-0.0038269812 -0.10262828 0.70100003
-0.001894652 -0.10175003 0.69500005
4.8849611e-06 -0.10087167 0.68900001
0.0018798443 -0.1004324 0.68600005
0.0037165037 -0.099407405 0.67900002
0.0055395062 -0.098821506 0.67500001
0.0073296842 -0.098089114 0.67000002
0.0091061778 -0.097502992 0.66600001
0.010860777 -0.09691678 0.66200006
0.012536057 -0.095891275 0.65500003
0.014304265 -0.095744058 0.65400004
0.015968537 -0.095011145 0.64900005
0.017714778 -0.09486372 0.648
0.019395351 -0.094423406 0.64500004
0.021157874 -0.094422162 0.64500004
0.022849251 -0.094128035 0.64300001
0.024567889 -0.093980208 0.64200002
0.026198981 -0.093539521 0.63900006
0.027901052 -0.093391486 0.63800001
0.029597571 -0.093243368 0.63700002
0.031288527 -0.093095154 0.63600004
0.032973908 -0.092946835 0.63500005
0.03465372 -0.092798427 0.634
0.036270566 -0.092503563 0.63200003
0.037996609 -0.092501342 0.63200003
0.039533965 -0.092059925 0.62900001
0.041251563 -0.092057511 0.62900001
0.042900711 -0.091908671 0.62800002
0.044686344 -0.092052415 0.62900001
0.046329748 -0.091903374 0.62800002
0.047967538 -0.09175425 0.62700003
0.049758185 -0.091897711 0.62800002
0.051472168 -0.091894753 0.62800002
0.05301661 -0.091599047 0.62600005
0.054462537 -0.091156945 0.62300003
0.05562149 -0.090275861 0.61700004
0.056840405 -0.089541055 0.61200005
0.057936251 -0.088659897 0.60600001
0.059392527 -0.088363945 0.60400003
0.060837705 -0.088067919 0.60200006
0.062375575 -0.087918118 0.60100001
0.063801296 -0.087621987 0.59900004
0.065325156 -0.087472066 0.59800005
0.066843368 -0.087322086 0.597
0.068126559 -0.086879522 0.59400004
0.06962803 -0.086729437 0.59300005
0.070883557 -0.086286791 0.59000003
0.072368272 -0.086136602 0.58900005
0.073847331 -0.085986361 0.588
0.075449057 -0.085982293 0.588
0.076788485 -0.085685715 0.58600003
0.078116819 -0.085389107 0.58400005
0.07943403 -0.08509247 0.58200002
0.080879353 -0.084941998 0.58100003
0.082460947 -0.084937677 0.58100003
0.083897673 -0.084787115 0.58000004
0.085476108 -0.08478269 0.58000004
0.086754128 -0.084485859 0.57800001
0.088173874 -0.084335186 0.57700002
0.089276865 -0.083892167 0.574
0.090679862 -0.083741449 0.57300001
0.092238136 -0.083736822 0.57300001
0.093632512 -0.08358603 0.57200003
0.095021226 -0.083435215 0.57100004
0.096404277 -0.083284371 0.57000005
0.098125353 -0.083425701 0.57100004
0.09985166 -0.083566993 0.57200003
0.10122859 -0.083416045 0.57100004
0.1027799 -0.083411165 0.57100004
0.10396551 -0.083114102 0.56900001
0.10514006 -0.082817055 0.56700003
0.10649167 -0.082666069 0.56600004
0.1080285 -0.082661115 0.56600004
0.10917794 -0.08236406 0.56400001
0.11031632 -0.08206702 0.56200004
0.11124461 -0.081623979 0.55900002
0.11276158 -0.081619002 0.55900002
0.11427833 -0.081614003 0.55900002
0.11600202 -0.081754975 0.56
0.11752106 -0.081749938 0.56
0.11882736 -0.081598923 0.55900002
0.11969743 -0.081155978 0.55600005
0.12098703 -0.081005 0.55500001
0.12249173 -0.080999978 0.55500001
0.12421965 -0.081140883 0.55600005
0.1252744 -0.080844 0.55400002
0.12677583 -0.080838978 0.55400002
0.12781398 -0.080542155 0.55200005
0.12907535 -0.080391251 0.551
0.13009416 -0.080094494 0.54900002
0.13134165 -0.079943664 0.54800004
0.13282594 -0.079938732 0.54800004
0.13431007 -0.079933822 0.54800004
0.13604183 -0.08007478 0.54900002
0.13802937 -0.080361575 0.551
0.13901474 -0.080065019 0.54900002
0.14050096 -0.080060169 0.54900002
0.14172843 -0.079909533 0.54800004
0.14347303 -0.08005055 0.54900002
0.14495887 -0.080045789 0.54900002
0.14617783 -0.07989525 0.54800004
0.1471218 -0.079598993 0.546
0.14887135 -0.079740122 0.54700005
0.15035133 -0.07973551 0.54700005
0.15238634 -0.080022454 0.54900002
0.15387154 -0.080017909 0.54900002
0.15535668 -0.080013417 0.54900002
0.15684173 -0.080008961 0.54900002
0.1583267 -0.080004558 0.54900002
0.1598116 -0.080000199 0.54900002
0.16159028 -0.080141611 0.55000001
0.16307779 -0.080137357 0.55000001
0.16486447 -0.080278866 0.551
0.16605273 -0.080129042 0.55000001
0.16723555 -0.0799793 0.54900002
0.16841297 -0.079829641 0.54800004
0.17082505 -0.080262721 0.551
0.17231518 -0.080258854 0.551
0.17412078 -0.08040072 0.55200005
0.1752955 -0.080251351 0.551
0.17774828 -0.080684647 0.55400002
0.17924663 -0.080681071 0.55400002
0.1813976 -0.080968849 0.55600005
0.1829015 -0.080965437 0.55600005
0.18506882 -0.08125335 0.55800003
0.18624394 -0.081104495 0.55700004
0.1880879 -0.081246965 0.55800003
0.19027716 -0.081535108 0.56
0.19281986 -0.081968948 0.56300002
0.19537894 -0.082402855 0.56600004
0.19725862 -0.08254566 0.56700003
0.19879323 -0.082543001 0.56700003
0.19997475 -0.082394876 0.56600004
0.20150703 -0.082392447 0.56600004
0.203757 -0.082681261 0.56800002
0.20674089 -0.083261319 0.57200003
0.20901836 -0.083550349 0.574
0.21130693 -0.083839498 0.57600003
0.21323702 -0.08398322 0.57700002
0.21591741 -0.08441817 0.58000004
0.2189893 -0.084998786 0.58400005
0.22132781 -0.085288443 0.58600003
0.22063428 -0.084413908 0.58000004
-0.020688418 -0.094091438 0.63100004
-0.019084474 -0.094689116 0.63500005
-0.016775561 -0.091558762 0.61400002
-0.011818423 -0.092157908 0.61800003
-0.011276883 -0.10259726 0.68800002
-0.0097790686 -0.10677339 0.71600002
-0.0078113549 -0.10662481 0.71500003
-0.0058081211 -0.1057305 0.70900005
-0.0038322033 -0.1046869 0.70200002
-0.0018972608 -0.10379232 0.69600004
4.8917486e-06 -0.10289762 0.69000006
0.001879728 -0.10230105 0.68600005
0.0037217473 -0.10140611 0.68000001
0.0055473708 -0.10080933 0.67600006
0.0073292307 -0.099914156 0.67000002
0.0090919435 -0.099168025 0.66500002
0.010827296 -0.098421782 0.66000003
0.012535282 -0.097675443 0.65500003
0.014281511 -0.097376361 0.65300006
0.015967553 -0.096778944 0.64900005
0.017741024 -0.096777916 0.64900005
0.019454295 -0.096478507 0.64700001
0.021189373 -0.096328147 0.64600003
0.022918915 -0.096177667 0.64500004
0.02460465 -0.095877975 0.64300001
0.026279373 -0.095578186 0.64100003
0.027943084 -0.095278323 0.63900006
0.029595768 -0.094978347 0.63700002
0.031286623 -0.094827384 0.63600004
0.032971911 -0.094676323 0.63500005
0.034596965 -0.094376065 0.63300002
0.036268376 -0.094224826 0.63200003
0.037994318 -0.094222561 0.63200003
0.039594442 -0.093922049 0.63000005
0.041249085 -0.093770519 0.62900001
0.042898145 -0.093618914 0.62800002
0.04468368 -0.093765356 0.62900001
0.046400759 -0.093762621 0.62900001
0.0479647 -0.093461677 0.62700003
0.049755245 -0.093607835 0.62800002
0.051387183 -0.093455777 0.62700003
0.052928813 -0.093154594 0.625
0.054284532 -0.092555262 0.62100005
0.055708393 -0.092104897 0.61800003
0.056929972 -0.091356434 0.61300004
0.058219705 -0.09075696 0.60900003
0.059487429 -0.090157449 0.60500002
0.060935274 -0.089855932 0.60300004
0.062060677 -0.089107327 0.59800005
0.063691169 -0.089103729 0.59800005
0.065212227 -0.088951036 0.597
0.066951573 -0.089096278 0.59800005
0.068352103 -0.088794477 0.59600002
0.069741547 -0.088492632 0.59400004
0.070999756 -0.088041767 0.59100002
0.072364271 -0.08773984 0.58900005
0.073843263 -0.08758682 0.588
0.075444929 -0.0875827 0.588
0.076784305 -0.087280639 0.58600003
0.078246348 -0.087127477 0.58500004
0.0798392 -0.0871232 0.58500004
0.081431843 -0.087118849 0.58500004
0.082740404 -0.086816609 0.583
0.084037885 -0.086514354 0.58100003
0.08547163 -0.086360976 0.58000004
0.086899705 -0.086207554 0.57900006
0.088169314 -0.085905202 0.57700002
0.089427814 -0.08560285 0.57500005
0.090991721 -0.085598193 0.57500005
0.092555404 -0.085593507 0.57500005
0.093955167 -0.08543992 0.574
0.095182873 -0.085137464 0.57200003
0.096399501 -0.084835008 0.57000005
0.098292381 -0.085127838 0.57200003
0.10002134 -0.085271768 0.57300001
0.10140097 -0.085118033 0.57200003
0.10259498 -0.08481551 0.57000005
0.10377786 -0.084512949 0.56800002
0.10513511 -0.084359199 0.56700003
0.10629856 -0.084056661 0.565
0.10764179 -0.083902888 0.56400001
0.10917294 -0.083897874 0.56400001
0.11031132 -0.083595343 0.56200004
0.11163761 -0.083441556 0.56100005
0.11315999 -0.083436504 0.56100005
0.11447772 -0.083282717 0.56
0.11599696 -0.083277635 0.56
0.11730616 -0.08312384 0.55900002
0.11882228 -0.083118744 0.55900002
0.12012293 -0.082964964 0.55800003
0.12163595 -0.082959868 0.55800003
0.12314878 -0.082954764 0.55800003
0.1246614 -0.082949661 0.55800003
0.12549548 -0.082498595 0.55500001
0.1269996 -0.082493521 0.55500001
0.12827203 -0.082339831 0.55400002
0.12930459 -0.082037531 0.55200005
0.13080007 -0.082032494 0.55200005
0.13181603 -0.081730261 0.55000001
0.1335481 -0.081873849 0.551
0.13455021 -0.081571698 0.54900002
0.1360369 -0.081566751 0.54900002
0.13777395 -0.081710368 0.55000001
0.13900986 -0.081556901 0.54900002
0.13998426 -0.081254907 0.54700005
0.14120635 -0.081101514 0.546
0.14294559 -0.081245236 0.54700005
0.14495409 -0.081537478 0.54900002
0.14643982 -0.081532694 0.54900002
0.14738658 -0.081230953 0.54700005
0.14886673 -0.081226267 0.54700005
0.15062158 -0.081370093 0.54800004
0.15238175 -0.081513949 0.54900002
0.15386701 -0.081509359 0.54900002
0.15506922 -0.081356362 0.54800004
0.15683725 -0.081500329 0.54900002
0.15803389 -0.081347458 0.54800004
0.15980726 -0.081491515 0.54900002
0.16158597 -0.081635602 0.55000001
0.16337006 -0.081779748 0.551
0.16486029 -0.081775516 0.551
0.16635051 -0.081771351 0.551
0.16753614 -0.08161886 0.55000001
0.16871631 -0.081466451 0.54900002
0.1705111 -0.081610896 0.55000001
0.17262407 -0.081903771 0.55200005
0.17443244 -0.082048319 0.55300003
0.17624624 -0.082192943 0.55400002
0.17774464 -0.082189269 0.55400002
0.17956664 -0.082334027 0.55500001
0.18139414 -0.082478881 0.55600005
0.18289815 -0.082475469 0.55600005
0.18506552 -0.082768798 0.55800003
0.18657511 -0.082765549 0.55800003
0.1880848 -0.082762398 0.55800003
0.19027415 -0.083055981 0.56
0.19247445 -0.083349653 0.56200004
0.19537611 -0.083940022 0.56600004
0.19725588 -0.084085539 0.56700003
0.19949183 -0.084379472 0.56900001
0.20032556 -0.084080353 0.56700003
0.2025727 -0.084374502 0.56900001
0.20483093 -0.08466877 0.57100004
0.2074616 -0.085111409 0.574
0.20901632 -0.085109331 0.574
0.21093822 -0.085255675 0.57500005
0.21323529 -0.085550405 0.57700002
0.21628806 -0.086141787 0.58100003
0.21898782 -0.086585045 0.58400005
0.22132644 -0.086880155 0.58600003
0.22063307 -0.085989363 0.58000004
-0.018331975 -0.092622481 0.61000001
-0.014752832 -0.081994653 0.54000002
-0.013252722 -0.081843689 0.53900003
-0.012413681 -0.086247966 0.56800002
-0.012104521 -0.096118711 0.63300002
-0.010817262 -0.10021929 0.66000003
-0.0095736021 -0.10644571 0.70100003
-0.0077780932 -0.10811657 0.71200001
-0.0057995655 -0.10750962 0.708
-0.003837422 -0.10675067 0.70300001
-0.001897142 -0.10568791 0.69600004
4.8914426e-06 -0.10477687 0.69000006
0.0018796104 -0.10416941 0.68600005
0.0037269872 -0.10340996 0.68100005
0.0055470234 -0.10265044 0.67600006
0.007328772 -0.10173891 0.67000002
0.0090777036 -0.10082731 0.66400003
0.01082662 -0.10021929 0.66000003
0.012553637 -0.099611171 0.65600002
0.01432436 -0.099458486 0.65500003
0.016015761 -0.098850153 0.65100002
0.01773992 -0.098545417 0.64900005
0.019453088 -0.098240569 0.64700001
0.021220859 -0.098239288 0.64700001
0.022881962 -0.097782396 0.64400005
0.024603127 -0.097629078 0.64300001
0.026236752 -0.097172 0.64000005
0.027897626 -0.096866652 0.63800001
0.029547483 -0.096561216 0.63600004
0.031235505 -0.09640751 0.63500005
0.032917961 -0.096253701 0.634
0.034649499 -0.096251614 0.634
0.036266156 -0.095945813 0.63200003
0.037991997 -0.095943525 0.63200003
0.039529186 -0.095485732 0.62900001
0.041312162 -0.095635064 0.63000005
0.042895548 -0.09532889 0.62800002
0.044680983 -0.095478028 0.62900001
0.046324205 -0.095323473 0.62800002
0.04796182 -0.095168844 0.62700003
0.049593825 -0.095014125 0.62600005
0.051302169 -0.095011093 0.62600005
0.052840985 -0.094704427 0.62400001
0.054368723 -0.094397701 0.62200004
0.055705104 -0.093787372 0.61800003
0.057019494 -0.093177006 0.61400002
0.058311891 -0.092566602 0.61000001
0.059582282 -0.091956146 0.60600001
0.061032783 -0.091649145 0.60400003
0.062160864 -0.090886883 0.59900004
0.063580997 -0.090579778 0.597
0.065099262 -0.090424336 0.59600002
0.066611886 -0.090268828 0.59500003
0.06823355 -0.090264983 0.59500003
0.069620214 -0.089957654 0.59300005
0.071236029 -0.089953661 0.59300005
0.072360232 -0.089342855 0.58900005
0.073713586 -0.089035399 0.58700001
0.075184159 -0.088879563 0.58600003
0.076780088 -0.088875346 0.58600003
0.078242071 -0.088719405 0.58500004
0.079698384 -0.08856342 0.58400005
0.081149049 -0.08840739 0.583
0.082594052 -0.088251315 0.58200002
0.083888769 -0.087943576 0.58000004
0.085467093 -0.087939046 0.58000004
0.086745031 -0.087631226 0.57800001
0.088164695 -0.087475002 0.57700002
0.089578681 -0.087318748 0.57600003
0.09114527 -0.087314047 0.57600003
0.092389688 -0.087006129 0.574
0.093786724 -0.086849786 0.57300001
0.09484528 -0.086390272 0.57000005
0.096394673 -0.086385444 0.57000005
0.098287486 -0.086683661 0.57200003
0.09984187 -0.086678728 0.57200003
0.1010415 -0.086370714 0.57000005
0.10241002 -0.086214207 0.56900001
0.10377289 -0.086057693 0.56800002
0.10531551 -0.086052656 0.56800002
0.10666981 -0.085896112 0.56700003
0.10782759 -0.08558806 0.565
0.10897432 -0.085280038 0.56300002
0.11010998 -0.084972024 0.56100005
0.11143355 -0.08481548 0.56
0.1131549 -0.084961824 0.56100005
0.11447261 -0.084805258 0.56
0.11578473 -0.084648699 0.55900002
0.11688136 -0.084340721 0.55700004
0.11839206 -0.084335603 0.55700004
0.11968728 -0.084179066 0.55600005
0.12141285 -0.084325314 0.55700004
0.12270226 -0.084168784 0.55600005
0.12420947 -0.084163643 0.55600005
0.12503816 -0.083704405 0.55300003
0.12653689 -0.083699301 0.55300003
0.12757234 -0.083391495 0.551
0.12906529 -0.083386414 0.551
0.13055806 -0.08338134 0.551
0.13205065 -0.083376266 0.551
0.13354309 -0.083371215 0.551
0.1347903 -0.083214886 0.55000001
0.13603194 -0.083058588 0.54900002
0.1375185 -0.083053596 0.54900002
0.13875173 -0.08289738 0.54800004
0.1402353 -0.08289244 0.54800004
0.14120151 -0.082585022 0.546
0.14320207 -0.082882673 0.54800004
0.14468524 -0.082877815 0.54800004
0.14643507 -0.083024241 0.54900002
0.14738184 -0.082717016 0.54700005
0.14913416 -0.082863502 0.54800004
0.15061691 -0.082858793 0.54800004
0.15237714 -0.083005331 0.54900002
0.15358216 -0.082849525 0.54800004
0.15506469 -0.082844973 0.54800004
0.15654713 -0.082840458 0.54800004
0.15774111 -0.08268483 0.54700005
0.15922074 -0.082680434 0.54700005
0.16099408 -0.082827225 0.54800004
0.16336578 -0.083276346 0.551
0.16455691 -0.083120972 0.55000001
0.16574259 -0.082965665 0.54900002
0.16722745 -0.082961559 0.54900002
0.168405 -0.082806423 0.54800004
0.17050721 -0.083104663 0.55000001
0.17230749 -0.083251864 0.551
0.17442866 -0.083550207 0.55300003
0.17560628 -0.083395377 0.55200005
0.17742018 -0.083542772 0.55300003
0.17891602 -0.083539188 0.55300003
0.18106441 -0.0838378 0.55500001
0.18256581 -0.08383438 0.55500001
0.18473057 -0.084133148 0.55700004
0.18623756 -0.084129907 0.55700004
0.1880817 -0.084277801 0.55800003
0.18993138 -0.084425785 0.55900002
0.19212908 -0.084724896 0.56100005
0.19433774 -0.085024089 0.56300002
0.1969053 -0.085474394 0.56600004
0.19913864 -0.085773773 0.56800002
0.20032309 -0.085620239 0.56700003
0.20257035 -0.085919827 0.56900001
0.20482868 -0.086219542 0.57100004
0.20709804 -0.086519361 0.57300001
0.20865023 -0.086517319 0.57300001
0.21020263 -0.086515404 0.57300001
0.21249445 -0.086815611 0.57500005
0.21554193 -0.087417901 0.57900006
0.21861137 -0.088020325 0.583
0.22132516 -0.088471889 0.58600003
0.22101232 -0.087715805 0.58100003
-0.019636787 -0.092582099 0.59900004
-0.017218951 -0.088564642 0.57300001
-0.015844638 -0.089647651 0.58000004
-0.013079782 -0.082229391 0.53200001
-0.013112215 -0.092740804 0.60000002
-0.01156836 -0.093514435 0.60500002
-0.0092760362 -0.087486878 0.56600004
-0.0093544982 -0.10588142 0.68500006
-0.0077229827 -0.10928253 0.70700002
-0.005807389 -0.10959211 0.70900005
-0.0038480954 -0.10897414 0.70500004
-0.0019024728 -0.1078923 0.69800001
4.9053097e-06 -0.10696492 0.69200003
0.0018794913 -0.10603742 0.68600005
0.0037267511 -0.10526438 0.68100005
0.0055466713 -0.10449121 0.67600006
0.0073173703 -0.10340879 0.66900003
0.009077129 -0.10263541 0.66400003
0.010825936 -0.10201649 0.66000003
0.012591114 -0.10170662 0.65800005
0.014345322 -0.10139661 0.65600002
0.016088551 -0.10108651 0.65400004
0.017793464 -0.10062174 0.65100002
0.019481925 -0.10015686 0.648
0.021186724 -0.09984646 0.64600003
0.022880528 -0.099535957 0.64400005
0.024601584 -0.09937989 0.64300001
0.026276104 -0.099069171 0.64100003
0.02793961 -0.098758362 0.63900006
0.029638551 -0.098601997 0.63800001
0.031282749 -0.098291002 0.63600004
0.033019755 -0.098288991 0.63600004
0.034647349 -0.097977795 0.634
0.036263913 -0.097666509 0.63200003
0.037929542 -0.097509667 0.63100004
0.039526753 -0.097198203 0.62900001
0.041244052 -0.097195707 0.62900001
0.042961221 -0.0971931 0.62900001
0.044607226 -0.0970359 0.62800002
0.046321381 -0.097033113 0.62800002
0.047958907 -0.096875712 0.62700003
0.049670044 -0.096872747 0.62700003
0.051381018 -0.09686967 0.62700003
0.052922484 -0.09655752 0.625
0.054365467 -0.096090816 0.62200004
0.055701781 -0.095469572 0.61800003
0.057016104 -0.094848275 0.61400002
0.058404021 -0.094381414 0.611
0.059677087 -0.093760043 0.60700005
0.061130237 -0.093447544 0.60500002
0.062260993 -0.092671618 0.60000002
0.063683793 -0.092359029 0.59800005
0.065204702 -0.092200808 0.597
0.066719994 -0.092042543 0.59600002
0.068114966 -0.091729783 0.59400004
0.069498837 -0.09141697 0.59200001
0.071111858 -0.091412939 0.59200001
0.072601825 -0.091254421 0.59100002
0.074211724 -0.091250263 0.59100002
0.075436532 -0.090782851 0.588
0.076775804 -0.090469807 0.58600003
0.078237742 -0.09031111 0.58500004
0.079966918 -0.090461083 0.58600003
0.0812838 -0.09014792 0.58400005
0.082589567 -0.089834705 0.58200002
0.083884239 -0.089521475 0.58000004
0.085315168 -0.089362547 0.57900006
0.086740419 -0.089203589 0.57800001
0.088160038 -0.089044586 0.57700002
0.089573987 -0.088885561 0.57600003
0.091298737 -0.089035101 0.57700002
0.092706807 -0.088875994 0.57600003
0.094109237 -0.088716865 0.57500005
0.09550599 -0.088557683 0.574
0.096728005 -0.088244222 0.57200003
0.098626196 -0.088547803 0.574
0.099836901 -0.088234298 0.57200003
0.10121375 -0.088075027 0.57100004
0.10222503 -0.087607272 0.56800002
0.10376783 -0.08760222 0.56800002
0.10531045 -0.087597139 0.56800002
0.10685283 -0.087592028 0.56800002
0.1078225 -0.087124281 0.565
0.10896921 -0.086810753 0.56300002
0.11010488 -0.086497262 0.56100005
0.11142843 -0.086337939 0.56
0.11314975 -0.086486958 0.56100005
0.11467188 -0.086481772 0.56100005
0.11577956 -0.086168282 0.55900002
0.11666638 -0.085700691 0.55600005
0.11817434 -0.085695513 0.55600005
0.12011264 -0.08599858 0.55800003
0.12162565 -0.085993379 0.55800003
0.12291778 -0.085834071 0.55700004
0.1244277 -0.085828878 0.55700004
0.12548523 -0.085515507 0.55500001
0.12653174 -0.08520218 0.55300003
0.12779877 -0.085042968 0.55200005
0.12906016 -0.084883764 0.551
0.13055296 -0.084878646 0.551
0.13204557 -0.084873535 0.551
0.13378039 -0.085022464 0.55200005
0.13503031 -0.08486335 0.551
0.1362747 -0.084704287 0.55000001
0.1375135 -0.084545247 0.54900002
0.13899995 -0.084540255 0.54900002
0.14048626 -0.084535271 0.54900002
0.14145523 -0.084222384 0.54700005
0.14293587 -0.084217474 0.54700005
0.14468041 -0.084366553 0.54800004
0.14643024 -0.084515646 0.54900002
0.14737707 -0.084202953 0.54700005
0.14940156 -0.08450605 0.54900002
0.15116189 -0.084655218 0.55000001
0.15265001 -0.084650517 0.55000001
0.15357755 -0.084338054 0.54800004
0.15477718 -0.084179565 0.54700005
0.15625696 -0.084175028 0.54700005
0.15773667 -0.084170543 0.54700005
0.15950741 -0.084319979 0.54800004
0.16128352 -0.084469467 0.54900002
0.16336147 -0.084772848 0.551
0.16485186 -0.084768571 0.551
0.16634221 -0.084764361 0.551
0.16783257 -0.084760219 0.551
0.16932291 -0.084756151 0.551
0.17081325 -0.084752165 0.551
0.17261633 -0.084902056 0.55200005
0.17442483 -0.085052006 0.55300003
0.17623879 -0.085202031 0.55400002
0.17773737 -0.085198343 0.55400002
0.17955953 -0.085348524 0.55500001
0.18138719 -0.08549878 0.55600005
0.18322031 -0.08564911 0.55700004
0.1847273 -0.08564578 0.55700004
0.18623437 -0.085642532 0.55700004
0.18807861 -0.085793138 0.55800003
0.19026816 -0.086097591 0.56
0.19212618 -0.08624839 0.56100005
0.19433494 -0.086553022 0.56300002
0.19655471 -0.086857758 0.565
0.19913605 -0.087316312 0.56800002
0.20102723 -0.087467514 0.56900001
0.20292403 -0.08761885 0.57000005
0.20482646 -0.087770291 0.57100004
0.20673452 -0.08792185 0.57200003
0.20864825 -0.088073552 0.57300001
0.21130134 -0.088532783 0.57600003
0.21323185 -0.08868473 0.57700002
0.21554039 -0.088990539 0.57900006
0.21823499 -0.089450151 0.58200002
0.22132389 -0.090063609 0.58600003
0.22063082 -0.089140296 0.58000004
-0.0092098918 -0.088398695 0.56200004
-0.0089442376 -0.10302757 0.65500003
-0.0077006435 -0.11089284 0.70500004
-0.0057824454 -0.11105056 0.70600003
-0.0038478486 -0.11089357 0.70500004
-0.0019023509 -0.10979267 0.69800001
4.9120827e-06 -0.10900626 0.69300002
0.0018821101 -0.10806242 0.68700004
0.0037374564 -0.10743306 0.68300003
0.0055463156 -0.10633169 0.67600006
0.0073387749 -0.10554479 0.671
0.0091175567 -0.1049151 0.66700006
0.010858047 -0.10412798 0.66200006
0.012609443 -0.10365535 0.65900004
0.014322539 -0.10302532 0.65500003
0.016038327 -0.10255247 0.65200001
0.017792331 -0.1023941 0.65100002
0.019480685 -0.10192105 0.648
0.021218171 -0.10176246 0.64700001
0.022879072 -0.1012892 0.64400005
0.024561767 -0.10097313 0.64200002
0.026233451 -0.10065696 0.64000005
0.027894119 -0.10034068 0.63800001
0.029636679 -0.10033884 0.63800001
0.031280778 -0.10002238 0.63600004
0.032965764 -0.099863082 0.63500005
0.034699824 -0.099860944 0.63500005
0.036319021 -0.09954419 0.63300002
0.037927173 -0.099227346 0.63100004
0.039524291 -0.098910406 0.62900001
0.041175924 -0.098750636 0.62800002
0.042890266 -0.098748013 0.62800002
0.044533439 -0.098588057 0.62700003
0.04609726 -0.098270766 0.625
0.047802992 -0.098267868 0.625
0.04958779 -0.098422103 0.62600005
0.051459827 -0.098733425 0.62800002
0.053003937 -0.098415807 0.62600005
0.054449569 -0.097940885 0.62300003
0.055698425 -0.097151518 0.61800003
0.057012673 -0.096519291 0.61400002
0.058400527 -0.096044227 0.611
0.059673529 -0.095411927 0.60700005
0.061025571 -0.094936766 0.60400003
0.062361073 -0.094461553 0.60100001
0.063786522 -0.094143465 0.59900004
0.065310106 -0.093982495 0.59800005
0.066716097 -0.093664289 0.59600002
0.06811101 -0.093346044 0.59400004
0.069377422 -0.092870608 0.59100002
0.07110776 -0.093023673 0.59200001
0.072474837 -0.092705272 0.59000003
0.074207492 -0.092858188 0.59100002
0.075303979 -0.092225462 0.58700001
0.076771498 -0.092064038 0.58600003
0.078099638 -0.091745473 0.58400005
0.079553112 -0.091583952 0.583
0.080861777 -0.091265313 0.58100003
0.08215934 -0.090946652 0.57900006
0.083735041 -0.090942077 0.57900006
0.085310534 -0.090937451 0.57900006
0.086735748 -0.090775728 0.57800001
0.088460892 -0.090928055 0.57900006
0.08972472 -0.090609193 0.57700002
0.091135703 -0.090447351 0.57600003
0.092380069 -0.090128452 0.574
0.093940683 -0.090123571 0.574
0.095168315 -0.089804657 0.57200003
0.096553952 -0.089642704 0.57100004
0.097933941 -0.089480743 0.57000005
0.099308275 -0.089318745 0.56900001
0.10067695 -0.089156732 0.56800002
0.10204 -0.088994712 0.56700003
0.10376275 -0.089146562 0.56800002
0.10511994 -0.088984497 0.56700003
0.10647146 -0.08882241 0.56600004
0.10762653 -0.088503398 0.56400001
0.10896407 -0.088341311 0.56300002
0.11009973 -0.088022321 0.56100005
0.11122429 -0.08770334 0.55900002
0.11294287 -0.087855026 0.56
0.11446226 -0.087849811 0.56
0.11577436 -0.087687716 0.55900002
0.11645137 -0.08705505 0.55500001
0.11795662 -0.087049849 0.55500001
0.11946166 -0.087044619 0.55500001
0.12096655 -0.087039411 0.55500001
0.12247121 -0.087034173 0.55500001
0.12375233 -0.086872138 0.55400002
0.12525392 -0.086866923 0.55400002
0.12675536 -0.086861707 0.55400002
0.12779358 -0.086542942 0.55200005
0.12905502 -0.086380981 0.551
0.13007396 -0.086062297 0.54900002
0.13156117 -0.086057156 0.54900002
0.13329056 -0.086208776 0.55000001
0.13478017 -0.086203665 0.55000001
0.13577411 -0.085885122 0.54800004
0.13750847 -0.086036772 0.54900002
0.13899495 -0.086031742 0.54900002
0.14073715 -0.086183406 0.55000001
0.14196746 -0.086021729 0.54900002
0.14371486 -0.086173438 0.55000001
0.14493953 -0.086011834 0.54900002
0.14615867 -0.085850284 0.54800004
0.14737228 -0.085688785 0.54700005
0.14939678 -0.085997276 0.54900002
0.15088232 -0.0859925 0.54900002
0.15264532 -0.086144395 0.55000001
0.15357292 -0.085826471 0.54800004
0.15533848 -0.085978448 0.54900002
0.15625244 -0.085660681 0.54700005
0.1577322 -0.085656166 0.54700005
0.15921192 -0.085651711 0.54700005
0.1609854 -0.085803896 0.54800004
0.16276422 -0.085956134 0.54900002
0.16395009 -0.085795291 0.54800004
0.16543238 -0.085791081 0.54800004
0.16752388 -0.086100034 0.55000001
0.16901158 -0.086095959 0.55000001
0.17049929 -0.086091965 0.55000001
0.17198704 -0.086088039 0.55000001
0.17410564 -0.086397231 0.55200005
0.17591694 -0.086549975 0.55300003
0.17741291 -0.086546287 0.55300003
0.1785854 -0.086386181 0.55200005
0.18073124 -0.086695649 0.55400002
0.18288799 -0.087005205 0.55600005
0.18472399 -0.087158345 0.55700004
0.18623117 -0.087155111 0.55700004
0.18807551 -0.087308437 0.55800003
0.19026515 -0.087618329 0.56
0.19246577 -0.087928317 0.56200004
0.19433215 -0.088081934 0.56300002
0.19655204 -0.088392116 0.565
0.19878292 -0.088702403 0.56700003
0.20067148 -0.088856332 0.56800002
0.20256568 -0.089010395 0.56900001
0.20410684 -0.08900816 0.56900001
0.20600963 -0.089162476 0.57000005
0.20828219 -0.089473344 0.57200003
0.21056585 -0.089784339 0.574
0.21286067 -0.090095475 0.57600003
0.21553887 -0.090563156 0.57900006
0.21823362 -0.091030963 0.58200002
0.2205673 -0.091342516 0.58400005
0.2202494 -0.090559378 0.57900006
-0.017099084 -0.10016592 0.62600005
-0.015757639 -0.10256715 0.64100003
-0.013197934 -0.096647635 0.60400003
-0.009242068 -0.09024854 0.56400001
-0.0087798052 -0.10289036 0.64300001
-0.0076236879 -0.1116918 0.69800001
-0.0057902606 -0.1131324 0.70700002
-0.0038530566 -0.11297269 0.70600003
-0.0019131285 -0.11233281 0.70200002
4.9259402e-06 -0.11121275 0.69500005
0.0018847275 -0.11009255 0.68800002
0.003737214 -0.10929228 0.68300003
0.0055623646 -0.1084919 0.67800003
0.0073601729 -0.10769138 0.67300004
0.0091306353 -0.10689077 0.66800004
0.010873744 -0.10609002 0.66300005
0.012608628 -0.10544921 0.65900004
0.014299749 -0.10464827 0.65400004
0.016037291 -0.10432725 0.65200001
0.017791184 -0.10416615 0.65100002
0.019509491 -0.10384493 0.64900005
0.021216806 -0.10352359 0.64700001
0.022913124 -0.10320216 0.64500004
0.024560189 -0.10272061 0.64200002
0.026231769 -0.10239898 0.64000005
0.027936058 -0.10223725 0.63900006
0.029634789 -0.1020754 0.63800001
0.031278789 -0.10175347 0.63600004
0.032911755 -0.10143144 0.634
0.03464298 -0.10142928 0.634
0.036374092 -0.10142702 0.634
0.037864678 -0.10078475 0.63000005
0.039521802 -0.10062232 0.62900001
0.041107774 -0.10029984 0.62700003
0.042955864 -0.10061711 0.62900001
0.04453066 -0.10029444 0.62700003
0.046241894 -0.1002916 0.62700003
0.047876507 -0.10012871 0.62600005
0.049663927 -0.10028561 0.62700003
0.051374711 -0.10028248 0.62700003
0.052916013 -0.099959366 0.625
0.054271452 -0.099316336 0.62100005
0.055604901 -0.098673247 0.61700004
0.057009213 -0.098190039 0.61400002
0.058396988 -0.097706772 0.611
0.05976823 -0.097223461 0.60800004
0.061021905 -0.096580185 0.60400003
0.062461101 -0.096256673 0.60200006
0.063889213 -0.095933102 0.60000002
0.065415442 -0.095769353 0.59900004
0.066824093 -0.095445663 0.597
0.068336323 -0.095281795 0.59600002
0.069725528 -0.094958007 0.59400004
0.071103632 -0.09463416 0.59200001
0.07259348 -0.094470128 0.59100002
0.07420323 -0.094465874 0.59100002
0.075427957 -0.093982048 0.588
0.076767139 -0.093658037 0.58600003
0.078228943 -0.093493797 0.58500004
0.079821534 -0.093489312 0.58500004
0.081135601 -0.093165167 0.583
0.082438566 -0.092841007 0.58100003
0.083875038 -0.092676587 0.58000004
0.085305862 -0.092512138 0.57900006
0.086881079 -0.092507407 0.57900006
0.088303335 -0.092342868 0.57800001
0.089564413 -0.092018537 0.57600003
0.090814419 -0.091694191 0.574
0.092536122 -0.091849044 0.57500005
0.094099402 -0.091844104 0.57500005
0.095496088 -0.091679394 0.574
0.096379884 -0.091035537 0.57000005
0.097585306 -0.090711102 0.56800002
0.099128701 -0.09070605 0.56800002
0.10049464 -0.090541281 0.56700003
0.1020349 -0.090536177 0.56700003
0.10357494 -0.090531044 0.56700003
0.10511477 -0.090525866 0.56700003
0.10646629 -0.090361021 0.56600004
0.10762133 -0.090036504 0.56400001
0.10895886 -0.08987166 0.56300002
0.11029075 -0.089706808 0.56200004
0.11161701 -0.089541949 0.56100005
0.11313932 -0.089536689 0.56100005
0.11466143 -0.089531414 0.56100005
0.11576911 -0.089206956 0.55900002
0.11665596 -0.088722967 0.55600005
0.11795137 -0.088558115 0.55500001
0.11945642 -0.088552855 0.55500001
0.12096129 -0.088547595 0.55500001
0.12268663 -0.088701859 0.55600005
0.12419384 -0.088696584 0.55600005
0.12592694 -0.088850819 0.55700004
0.12697892 -0.088526502 0.55500001
0.12848288 -0.088521235 0.55500001
0.12928407 -0.088037536 0.55200005
0.13030572 -0.087713346 0.55000001
0.13155602 -0.087548696 0.54900002
0.13304308 -0.087543532 0.54900002
0.13453001 -0.087538384 0.54900002
0.13601677 -0.087533265 0.54900002
0.13775386 -0.087687589 0.55000001
0.13924305 -0.087682493 0.55000001
0.14073212 -0.087677434 0.55000001
0.14247963 -0.087831795 0.551
0.14370988 -0.087667391 0.55000001
0.1451986 -0.087662421 0.55000001
0.14642048 -0.087498114 0.54900002
0.14817566 -0.087652586 0.55000001
0.14939195 -0.087488376 0.54900002
0.15115236 -0.087642923 0.55000001
0.15236305 -0.087478817 0.54900002
0.15356827 -0.087314777 0.54800004
0.15533388 -0.087469444 0.54900002
0.15653352 -0.087305538 0.54800004
0.15830441 -0.087460302 0.54900002
0.15949856 -0.087296508 0.54800004
0.16127479 -0.087451383 0.54900002
0.16305634 -0.087606296 0.55000001
0.16394582 -0.087283447 0.54800004
0.16573009 -0.087438494 0.54900002
0.16782431 -0.087752849 0.551
0.16962211 -0.087908015 0.55200005
0.17111531 -0.087903984 0.55200005
0.17229582 -0.087740801 0.551
0.1744172 -0.088055402 0.55300003
0.17623131 -0.088210844 0.55400002
0.17773007 -0.088207148 0.55400002
0.17890537 -0.08804433 0.55300003
0.18072776 -0.088200018 0.55400002
0.18288462 -0.088515006 0.55600005
0.1843891 -0.088511676 0.55600005
0.18622799 -0.088667639 0.55700004
0.18807244 -0.088823691 0.55800003
0.19060193 -0.089298196 0.56100005
0.19212043 -0.089295283 0.56100005
0.19432941 -0.0896108 0.56300002
0.19620149 -0.089767255 0.56400001
0.19878034 -0.090242147 0.56700003
0.20066907 -0.090398833 0.56800002
0.20291941 -0.090714797 0.57000005
0.20446341 -0.090712577 0.57000005
0.20636901 -0.090869635 0.57100004
0.20864442 -0.091185972 0.57300001
0.21129778 -0.091661558 0.57600003
0.21359812 -0.091978155 0.57800001
0.21628189 -0.092454016 0.58100003
0.21860726 -0.092770904 0.583
0.22056614 -0.092928804 0.58400005
0.21872683 -0.091495641 0.57500005
-0.017486027 -0.094708376 0.58200002
-0.016196642 -0.096499525 0.59300005
-0.015387892 -0.1018707 0.62600005
-0.013000428 -0.096826896 0.59500003
-0.010476417 -0.089179128 0.54800004
-0.0093397778 -0.092759974 0.57000005
-0.008574428 -0.10219932 0.62800002
-0.0075795036 -0.11294057 0.69400001
-0.0057898816 -0.11505662 0.70700002
