# .PCD v0.7 - Point Cloud Data file format
VERSION 0.7
FIELDS x y z
SIZE 4 4 4
TYPE F F F
COUNT 1 1 1
WIDTH 1427
HEIGHT 1
VIEWPOINT 0 0 0 1 0 0 0
POINTS 1427
DATA ascii
-0.45500553 2.833998 0.049158216
-0.43184149 2.864836 0.072140872
-0.45771927 2.846494 0.04642421
-0.3743844 2.8792894 0.11591536
-0.40288162 2.8668482 0.095890194
-0.37670171 2.8918374 0.1163846
-0.40516013 2.8795674 0.095276475
-0.3114481 2.8994191 0.15001094
-0.34412122 2.8904316 0.13414711
-0.31185049 2.911525 0.15292424
-0.34548473 2.9028175 0.13602626
-0.23899651 2.9112256 0.17243224
-0.27572137 2.9054286 0.1629411
-0.2394349 2.9226692 0.17456746
-0.27611649 2.9170048 0.16580009
-0.17000663 2.9305251 0.17724633
-0.20333189 2.9195879 0.1779846
-0.16838104 2.9432409 0.17793638
-0.20296848 2.9319022 0.17915136
-0.1128118 2.9575312 0.15405929
-0.14030963 2.9440219 0.16785532
-0.1092267 2.9664681 0.15631872
-0.13735002 2.9551861 0.16931736
-0.061066926 2.9760005 0.12420875
-0.086084843 2.9685242 0.14009827
-0.059076786 2.9819748 0.12553167
-0.083360672 2.9758012 0.14198548
-0.020662308 2.9780414 0.08072257
-0.038700044 2.9789841 0.10463589
-0.016599655 2.9817636 0.08305645
-0.035697758 2.9837701 0.10618109
-0.0018930435 2.9716661 0.027141571
-0.0086497664 2.9737322 0.051812291
0.00061774254 2.9738753 0.03139931
-0.0051453114 2.9765446 0.055270195
-0.016151071 2.9812496 0.01961416
-0.01830703 2.9750755 0.024218857
-0.027713656 2.9764869 0.043991923
-0.026274085 2.9812582 0.040553272
-0.013512135 2.987684 0.021795809
-0.02174437 2.9888394 0.039792776
0.0022297502 2.9869201 0.016418219
0.002638638 2.9794962 0.020026386
0.00037765503 2.9775002 0.015930712
-0.00069665909 2.9846151 0.013164699
-0.0032932162 2.9758828 0.013753116
-0.0040326715 2.9810717 0.012835979
-0.0062792301 2.9892428 0.016504049
-0.0006403327 2.9913137 0.01741153
-0.0021519065 2.9892256 0.016385853
-0.0067707896 2.9866469 0.015698254
-0.0084491968 2.9816172 0.013244033
-0.0098466873 2.9749734 0.015328467
-0.43400782 2.8778698 0.07049495
-0.46049476 2.8592608 0.043628335
-0.48547506 2.8383248 0.01613611
-0.5074895 2.8166273 -0.0098654628
-0.52510464 2.7933681 -0.035742342
-0.53687972 2.76773 -0.062848389
-0.54420274 2.740607 -0.091431081
-0.54843944 2.7129052 -0.12173671
-0.54955065 2.6874163 -0.15169567
-0.54750216 2.6669295 -0.17922294
-0.54457188 2.6524513 -0.20041114
-0.54199946 2.7009313 -0.16013104
-0.54131544 2.6831014 -0.18197113
-0.53873909 2.6712091 -0.19694179
-0.53032887 2.7515838 -0.10147327
-0.53766394 2.7248547 -0.13178724
-0.51010883 2.8024299 -0.048189461
-0.52200687 2.7778618 -0.073728323
-0.46968728 2.844116 -0.00071078539
-0.49204713 2.8240039 -0.02448529
-0.41891545 2.8828366 0.050480783
-0.44490349 2.8642623 0.025047004
-0.36539429 2.9116671 0.094912499
-0.39295697 2.8981922 0.073292911
-0.30299997 2.935591 0.13583511
-0.33459729 2.9245665 0.11676371
-0.24305153 2.9511311 0.15718764
-0.27303827 2.9434407 0.14911908
-0.1792804 2.9734728 0.15910035
-0.21138316 2.961642 0.16063464
-0.1173715 2.9958403 0.14057779
-0.14798534 2.9851086 0.15223682
-0.058531702 3.0118535 0.10596859
-0.087299943 3.0049965 0.12464339
-0.011334181 3.014405 0.065029562
-0.031821728 3.015734 0.086072922
0.0022361279 2.9959576 0.025347948
-0.0012333393 3.0056741 0.042900741
0.00070428848 2.9896295 0.015844643
0.0028325319 2.9917176 0.018002927
0.0045552254 2.9889581 0.019772291
0.0049465895 2.981529 0.02421838
0.0031795502 2.9761202 0.035754263
-0.0015605688 2.9794333 0.058799565
-0.012446404 2.9855649 0.085443377
-0.032633126 2.9886596 0.10776395
-0.057032764 2.9880884 0.12690669
-0.080541849 2.9832618 0.14400667
-0.10548967 2.9756296 0.15883577
-0.13419557 2.9666631 0.17116827
-0.1665411 2.9563167 0.17913467
-0.20241416 2.9445765 0.180852
-0.23973942 2.934427 0.17717397
-0.27644438 2.928869 0.16893482
-0.31225425 2.9238842 0.15592527
-0.34689355 2.9154584 0.1379236
-0.37907058 2.90466 0.11685684
-0.40748894 2.8925641 0.094645113
-0.0039932728 2.9863861 0.013837397
-0.53829521 2.656162 -0.21443665
-0.53696895 2.6523268 -0.21340233
-0.53940123 2.6463106 -0.21647185
-0.54077256 2.6513669 -0.21756518
-0.5349797 2.6463382 -0.21017623
-0.53758734 2.6396983 -0.21306366
-0.54016042 2.6365654 -0.21189386
-0.54174936 2.6433294 -0.21552837
-0.54222608 2.6484568 -0.21627975
-0.53523529 2.6307003 -0.20917833
-0.53846192 2.6293128 -0.20820028
-0.53204501 2.6360271 -0.20639223
-0.52958596 2.6276238 -0.20173138
-0.5333733 2.6240718 -0.20438546
-0.53653479 2.6258929 -0.2045334
-0.5306989 2.6455505 -0.19970202
-0.52825081 2.6372216 -0.19641638
-0.53356171 2.6551907 -0.20247602
-0.53305042 2.663223 -0.19410568
-0.53046942 2.6548498 -0.19238502
-0.52882206 2.6467545 -0.1921469
-0.53570414 2.6661823 -0.20019072
-0.53466392 2.6664593 -0.19705796
-0.53539133 2.6597607 -0.20554793
-0.53655452 2.6621106 -0.20693654
-0.53062779 2.6594918 -0.18772107
-0.53318471 2.6673834 -0.18920892
-0.52836597 2.6485517 -0.18834281
-0.53478783 2.6702402 -0.19208109
-0.53600883 2.6691029 -0.197007
-0.53741443 2.6650646 -0.20466465
-0.53925741 2.6599739 -0.21163356
-0.54179323 2.6556871 -0.2144959
-0.54355454 2.6510665 -0.21411103
-0.54146844 2.6382306 -0.20742983
-0.543064 2.6449764 -0.21134573
-0.539904 2.6316259 -0.2036019
-0.53741503 2.6266015 -0.20036829
-0.53303254 2.6246021 -0.19825667
-0.52902246 2.6273515 -0.19586658
-0.52764904 2.6365912 -0.19181246
-0.52507114 2.5762846 -0.1117112
-0.52849543 2.5803578 -0.11671895
-0.52835929 2.5849063 -0.10975063
-0.52507925 2.5807364 -0.10527921
-0.53075337 2.5818088 -0.12133008
-0.53128672 2.5862138 -0.11681014
-0.53116602 2.5917346 -0.10899872
-0.52830863 2.5895584 -0.10294074
-0.52511412 2.5850365 -0.098762453
-0.52355194 2.601711 -0.075300515
-0.52652657 2.607343 -0.078657448
-0.52156538 2.6256526 -0.05704838
-0.51861018 2.6193135 -0.053975105
-0.52914071 2.611922 -0.0819574
-0.52397728 2.6309335 -0.059623241
-0.51512456 2.6530001 -0.033931553
-0.51294273 2.6472452 -0.031707466
-0.51000851 2.64025 -0.028875411
-0.50026202 2.668257 -0.0059024096
-0.49743688 2.6607821 -0.0033473969
-0.50220388 2.6745131 -0.007910192
-0.48535943 2.6955483 0.017343104
-0.4836756 2.6887138 0.019112051
-0.48104757 2.6807625 0.021288574
-0.46333611 2.7086442 0.042077363
-0.46101308 2.7000282 0.043719828
-0.46473038 2.7161791 0.040727139
-0.44197613 2.7364581 0.062849104
-0.44089735 2.7283118 0.063658416
-0.4389134 2.7191088 0.064711034
-0.41799575 2.7480309 0.084507644
-0.4163357 2.7385175 0.085042477
-0.41877854 2.7564218 0.084309399
-0.39449686 2.7754304 0.10435727
-0.39408112 2.7669675 0.10399008
-0.39278501 2.7572811 0.10410324
-0.36860716 2.7842715 0.1214869
-0.36776459 2.7744148 0.12128451
-0.36852252 2.7928021 0.12225038
-0.3413682 2.8079479 0.13821995
-0.34201229 2.7993076 0.13721439
-0.34169263 2.7892187 0.13681895
-0.31475931 2.8113954 0.15141463
-0.31497896 2.8009889 0.15092868
-0.31355333 2.8203247 0.15249681
-0.2854203 2.8309371 0.16468871
-0.28714621 2.8216608 0.16337419
-0.287889 2.8108847 0.16272843
-0.2594831 2.8312285 0.17240435
-0.26067883 2.8201129 0.17131746
-0.25730634 2.8408186 0.17439193
-0.2293818 2.8501284 0.1796571
-0.23194247 2.8402393 0.17715091
-0.23352557 2.82885 0.17568213
-0.20468873 2.8488395 0.17628258
-0.20661491 2.8373029 0.17479944
-0.20183271 2.8590086 0.17854494
-0.17501408 2.8677809 0.17288107
-0.178128 2.857434 0.17113161
-0.18038648 2.8459857 0.16978639
-0.15263999 2.8664463 0.16303825
-0.15529257 2.8554175 0.16176444
-0.14926946 2.876775 0.16449797
-0.1246227 2.8860643 0.15329564
-0.12836689 2.8759539 0.15195727
-0.13150603 2.8654549 0.15070546
-0.10546166 2.8859904 0.13785815
-0.10920137 2.875984 0.13656199
-0.10110039 2.895716 0.13917971
-0.079080284 2.9042408 0.12175488
-0.084130406 2.8947513 0.12038177
-0.088475943 2.8850157 0.11907154
-0.064590096 2.9004261 0.0991714
-0.069423974 2.8905981 0.097956955
-0.058954716 2.9101298 0.1006332
-0.042739928 2.9113867 0.07581526
-0.048181355 2.9023135 0.07429409
-0.052768111 2.8930252 0.073368311
-0.036246061 2.8997018 0.045815051
-0.039237559 2.8925707 0.045463204
-0.03244549 2.906029 0.047299922
-0.026607394 2.900275 0.032196403
-0.028577983 2.8970373 0.031129837
-0.029872894 2.89241 0.031470716
-0.54049528 2.576894 -0.12295777
-0.53809875 2.5815551 -0.1244427
-0.5379352 2.5729425 -0.13612843
-0.54009175 2.5685551 -0.1343745
-0.53462523 2.5859301 -0.12263024
-0.53466284 2.5776632 -0.13393158
-0.53356856 2.5718963 -0.13884473
-0.53679228 2.5669458 -0.14141601
-0.53839791 2.5650437 -0.13833743
-0.52409911 2.6457174 -0.036328495
-0.52087331 2.6518385 -0.036348164
-0.53063011 2.6298873 -0.06256479
-0.5337773 2.6241171 -0.062299192
-0.51705182 2.6554496 -0.035342574
-0.52673841 2.6333253 -0.061687768
-0.53259075 2.6133363 -0.086129129
-0.53653872 2.609833 -0.086973786
-0.53957534 2.6043847 -0.086308837
-0.49427381 2.6882384 0.015213311
-0.49057245 2.6953089 0.015164077
-0.50753874 2.6735766 -0.010077953
-0.51096052 2.6669562 -0.010026693
-0.48636299 2.6994021 0.016008019
-0.50357491 2.6774976 -0.0091884732
-0.45164078 2.7315938 0.059530854
-0.44724655 2.738816 0.060355127
-0.46993208 2.7172191 0.038305819
-0.4739576 2.7099535 0.038000643
-0.44254959 2.7421935 0.061980069
-0.46548921 2.7210572 0.039480388
-0.40528357 2.772352 0.10176703
-0.39997 2.7789953 0.10332945
-0.42414695 2.7595856 0.082317591
-0.42894727 2.7526228 0.081003964
-0.39455557 2.7814882 0.10532108
-0.41914374 2.7624857 0.084276855
-0.3535378 2.8054464 0.13892877
-0.34684491 2.8117464 0.13981262
-0.37404567 2.7965066 0.12252441
-0.38004404 2.7900999 0.12116945
-0.34032857 2.8138211 0.14065677
-0.36807376 2.7987254 0.12406358
-0.29813534 2.8291457 0.16816247
-0.29046619 2.8354867 0.16825032
-0.31883031 2.8243511 0.15509862
-0.32606244 2.8180001 0.15476882
-0.28328365 2.8374379 0.16799593
-0.31194061 2.8264191 0.1552518
-0.24209982 2.8504269 0.18587631
-0.23388189 2.8564465 0.18606484
-0.26219994 2.8463771 0.17911237
-0.27027321 2.840287 0.17858815
-0.22639745 2.8575957 0.18543917
-0.2547279 2.8477948 0.1790415
-0.18493557 2.8666923 0.18939066
-0.17753738 2.8737586 0.18405187
-0.20535445 2.8651178 0.18748182
-0.21322894 2.8585694 0.18986201
-0.17126626 2.8763354 0.17798454
-0.19841045 2.8669393 0.18425226
-0.13300443 2.887121 0.17364991
-0.12608755 2.89379 0.16583288
-0.15135783 2.8837402 0.17646104
-0.1584875 2.8768046 0.18330997
-0.12051886 2.8962271 0.1577673
-0.14544713 2.8862998 0.16913962
-0.083904326 2.9022834 0.14953488
-0.07747674 2.9097135 0.13854951
-0.10101247 2.9026277 0.15329403
-0.10760826 2.8958776 0.16244286
-0.072898149 2.9134977 0.12729579
-0.096047699 2.9055121 0.14392376
-0.046440005 2.9067924 0.11766779
-0.040912569 2.9161007 0.10500169
-0.056848943 2.9144437 0.12131876
-0.063480377 2.9055874 0.13476771
-0.032596827 2.922147 0.082641959
-0.051935554 2.9195359 0.10757172
-0.023926198 2.907459 0.074370205
-0.025471985 2.9153707 0.076507688
-0.031466246 2.9139597 0.092992723
-0.03287971 2.9069359 0.097750306
-0.53392255 2.5570176 -0.13160199
-0.53213453 2.5533307 -0.12756097
-0.53403544 2.5570409 -0.12230647
-0.53561944 2.5603564 -0.1256302
-0.53036487 2.5521386 -0.12283653
-0.53164214 2.5544879 -0.11871421
-0.53236413 2.5613506 -0.10843796
-0.53487545 2.5640042 -0.11184973
-0.53640056 2.5675685 -0.11489075
-0.53654188 2.5917466 -0.080031157
-0.53520274 2.5874112 -0.077733874
-0.52984297 2.6052411 -0.054111421
-0.53110069 2.6099546 -0.056305647
-0.53236562 2.5844615 -0.074745476
-0.52693474 2.6021163 -0.051016033
-0.51728678 2.6219957 -0.025067925
-0.52029204 2.6252944 -0.028338194
-0.52153271 2.6303403 -0.030492783
-0.50684512 2.6454895 -0.0026472211
-0.50817996 2.6507933 -0.0046436191
-0.50360394 2.6420429 0.00067299604
-0.48645189 2.6618259 0.025234401
-0.48996282 2.6654398 0.021957636
-0.49137193 2.6710513 0.020125806
-0.44972211 2.7105916 0.064083755
-0.4714455 2.6908677 0.042703092
-0.47011125 2.6847293 0.04446584
-0.44852686 2.7039049 0.065815032
-0.46638221 2.6809542 0.047647953
-0.44457799 2.6998932 0.068891287
-0.42644942 2.7235258 0.086934865
-0.42752779 2.7305615 0.085261524
-0.4222092 2.7191422 0.089926094
-0.39879018 2.7377174 0.1098842
-0.40332484 2.74242 0.10705927
-0.40430558 2.7497046 0.10553154
-0.37858307 2.7594426 0.12541193
-0.37949049 2.7669342 0.12417695
-0.37382716 2.7546523 0.12789384
-0.34772348 2.7694829 0.14409605
-0.35262537 2.7742903 0.142028
-0.35345274 2.7819164 0.14113852
-0.32586479 2.7866461 0.15695494
-0.3265506 2.7943285 0.15635353
-0.32086283 2.7817514 0.15862757
-0.29354984 2.7921116 0.17081612
-0.29861808 2.7971504 0.16965872
-0.29916489 2.8050029 0.16925853
-0.27121741 2.806422 0.17960352
-0.27167684 2.8147838 0.17929077
-0.26607585 2.8012249 0.1799826
-0.23865545 2.8104026 0.18567252
-0.24371302 2.8155172 0.18639588
-0.24400955 2.8241608 0.18624359
-0.21617079 2.8254607 0.18964607
-0.21608788 2.8335812 0.18991154
-0.21150815 2.8209436 0.18745595
-0.18500948 2.8327739 0.18567145
-0.18926984 2.8365815 0.18905598
-0.18878227 2.843868 0.18961126
-0.16369259 2.8491867 0.18432647
-0.16295105 2.8558338 0.18465972
-0.15953636 2.8458302 0.18065494
-0.13516116 2.8587677 0.17271417
-0.1390993 2.8619044 0.17622113
-0.13810283 2.8679478 0.17623049
-0.1151436 2.873349 0.16550213
-0.11373949 2.8786814 0.16549832
-0.11195731 2.870249 0.16214699
-0.089604616 2.8791392 0.14956623
-0.092011452 2.8818676 0.15300316
-0.090378165 2.8863552 0.15306878
-0.069894314 2.8857691 0.13956255
-0.068532586 2.8892691 0.13954252
-0.067782044 2.8843038 0.13558769
-0.048965812 2.8884866 0.11979091
-0.050573766 2.8888791 0.12339371
-0.049586058 2.891382 0.12308866
-0.035827696 2.8950303 0.10269588
-0.034917653 2.8966186 0.10187137
-0.035629988 2.8943942 0.10178453
-0.02742511 2.8978846 0.078281581
-0.026879311 2.8998039 0.077448905
-0.02586329 2.9009655 0.076509416
-0.52658761 2.5502608 -0.12070394
-0.52636707 2.5528533 -0.1132763
-0.52193826 2.5522459 -0.11553794
-0.52137411 2.5542014 -0.10808474
-0.52134943 2.5606797 -0.098181546
-0.52669853 2.5596306 -0.1030398
-0.52562362 2.5825031 -0.069264233
-0.51991665 2.5999987 -0.044997752
-0.51931155 2.5826962 -0.065186858
-0.51340306 2.5999839 -0.04076165
-0.50331271 2.6196482 -0.013876259
-0.50997078 2.619755 -0.018441796
-0.49570757 2.6397278 0.0076580644
-0.48877528 2.6395943 0.012409031
-0.47051966 2.6593821 0.037085235
-0.47783959 2.6595061 0.032331228
-0.45705611 2.6786826 0.054608524
-0.44928598 2.6785767 0.059152782
-0.42609465 2.6972201 0.079868734
-0.43443036 2.697458 0.075623512
-0.41101956 2.7160475 0.096504331
-0.40196598 2.7153251 0.10050216
-0.37683493 2.7328918 0.11984977
-0.38658094 2.7340291 0.1161783
-0.36086792 2.7510016 0.13357872
-0.3506397 2.749881 0.1367324
-0.32361639 2.7649524 0.15156126
-0.33418721 2.7659976 0.14900756
-0.30684173 2.7780521 0.16277504
-0.29601067 2.7767293 0.16476154
-0.268098 2.7866695 0.17478973
-0.27911764 2.7882288 0.17371756
-0.251311 2.7975972 0.18066585
-0.24015045 2.7962506 0.18010801
-0.21284252 2.8064959 0.18039173
-0.22390974 2.8074319 0.18329525
-0.19740725 2.8190014 0.18127012
-0.18684393 2.8184721 0.1753217
-0.16146386 2.831506 0.16765594
-0.17153186 2.831794 0.17630291
-0.14600277 2.8452652 0.17010707
-0.13601381 2.8449376 0.16016054
-0.11230063 2.8572676 0.15180296
-0.12192559 2.8580053 0.16219461
-0.10040134 2.8685396 0.15208262
-0.092124879 2.8670156 0.14153594
-0.073224545 2.8749335 0.12816721
-0.079933226 2.8769138 0.13938677
-0.059012592 2.8831704 0.12372714
-0.053342342 2.8817527 0.11049688
-0.033315897 2.8873956 0.087416232
-0.042001367 2.8882267 0.10872102
-0.033262551 2.8929865 0.097982287
-0.027411342 2.8934653 0.079530299
-0.52046418 2.5590479 -0.11141974
-0.51983994 2.5605915 -0.10521781
-0.52100259 2.5660546 -0.10827631
-0.52058041 2.5687492 -0.10398191
-0.52063453 2.5736215 -0.096378744
-0.51979238 2.5662901 -0.096385598
-0.51775277 2.5862396 -0.066421509
-0.51200688 2.6031559 -0.043004334
-0.51896775 2.5914023 -0.069916427
-0.51354671 2.6081288 -0.047787368
-0.50438321 2.6278927 -0.022458971
-0.50229216 2.6227739 -0.016794026
-0.4884167 2.6427057 0.0090100169
-0.49138919 2.6478775 0.0028007627
-0.47481436 2.6674874 0.026820719
-0.47089338 2.6623867 0.033326864
-0.45022297 2.6812947 0.055080116
-0.45490098 2.6861589 0.048432767
-0.43301451 2.7045515 0.068697333
-0.42757785 2.6997535 0.075483024
-0.40412325 2.7180736 0.095743835
-0.41053104 2.7233455 0.088683814
-0.38706845 2.7415783 0.10756961
-0.37968278 2.7358482 0.1148102
-0.3540746 2.7526925 0.13162568
-0.36224705 2.7583244 0.12451828
-0.33646858 2.7727721 0.13979128
-0.32761002 2.7674444 0.14654726
-0.30059332 2.7789443 0.15994275
-0.3101365 2.7841198 0.15364045
-0.28344125 2.793618 0.16505986
-0.27325904 2.7886059 0.17046565
-0.24583018 2.7978513 0.17676139
-0.25657451 2.8024962 0.17303979
-0.22982365 2.8112414 0.17650926
-0.21883225 2.8074543 0.17812365
-0.19278991 2.818166 0.17385358
-0.2034831 2.8203404 0.17438871
-0.17789036 2.830229 0.16834462
-0.16743827 2.8298066 0.16642487
-0.14250094 2.8422415 0.15829182
-0.1533829 2.8413408 0.16005164
-0.13030469 2.8528278 0.14920086
-0.11920589 2.8541949 0.14866537
-0.098772466 2.8644607 0.13674468
-0.10899103 2.8638484 0.13549882
-0.089107454 2.8730156 0.11865139
-0.079720855 2.8729036 0.12162423
-0.060551524 2.8794162 0.10240644
-0.070307493 2.8789394 0.098360896
-0.053506792 2.8813403 0.07585001
-0.044816971 2.882602 0.081773996
-0.036073923 2.8810542 0.062410414
-0.028491855 2.8832443 0.056683064
-0.039614141 2.8799298 0.052325845
-0.032202601 2.8819258 0.045869112
-0.52234101 2.5706813 -0.10946655
-0.52240884 2.5754106 -0.10368216
-0.52248293 2.5797923 -0.096871674
-0.52096367 2.596482 -0.072634578
-0.5158422 2.6134975 -0.051169038
-0.50705332 2.6337621 -0.026139438
-0.49443531 2.6539443 -0.00088113546
-0.47814798 2.6736486 0.023333132
-0.45834863 2.6924703 0.045241416
-0.43653911 2.711096 0.065750659
-0.41422415 2.7302272 0.085778058
-0.3909384 2.7487729 0.10464627
-0.3662262 2.7656667 0.12168157
-0.34050119 2.7802064 0.13711032
-0.31418693 2.7916806 0.15115416
-0.287489 2.8012874 0.1628837
-0.26061451 2.810221 0.17138022
-0.23377228 2.8187778 0.1755836
-0.20715171 2.8272612 0.17443639
-0.18125582 2.8362687 0.16916329
-0.15659273 2.8463943 0.16098672
-0.13327539 2.8571694 0.14983088
-0.11142278 2.8681433 0.13560873
-0.091081977 2.877403 0.11814719
-0.072299957 2.8830492 0.097282231
-0.055347383 2.8854253 0.073467433
-0.040512741 2.8848717 0.047157049
-0.029987037 2.8849843 0.034550369
-0.021502793 2.9060366 0.049772501
-0.023044229 2.9126832 0.058318019
-0.02352947 2.9075625 0.042980194
-0.025461733 2.914047 0.052247584
-0.025722027 2.8956988 0.048627615
-0.025968015 2.8893254 0.051865816
-0.024960697 2.8987749 0.047635555
-0.02375406 2.9003818 0.047605872
-0.523561 2.6378477 -0.033763587
-0.51036191 2.6586559 -0.007661283
-0.49367484 2.6794031 0.017371476
-0.53878731 2.5978744 -0.083444059
-0.53317493 2.6168611 -0.059621096
-0.53702134 2.5607765 -0.13677722
-0.53847921 2.5642793 -0.13026243
-0.539101 2.5720503 -0.11918467
-0.53291899 2.5829403 -0.12618005
-0.53279591 2.5899246 -0.11652374
-0.53194284 2.577976 -0.13016784
-0.52511126 2.63358 -0.060936749
-0.51581556 2.6557891 -0.034841835
-0.53064221 2.6139739 -0.084450901
-0.50255287 2.6777089 -0.0087357163
-0.48544264 2.6992919 0.01652199
-0.46459943 2.7205212 0.04007256
-0.44165939 2.7412431 0.062552214
-0.41825312 2.7613428 0.084586501
-0.39369631 2.7802827 0.10523286
-0.36728978 2.7975495 0.12353963
-0.33965641 2.8126743 0.13974714
-0.31139898 2.8252013 0.154082
-0.28286976 2.8360517 0.1665231
-0.25440711 2.846144 0.17703289
-0.22621512 2.8557007 0.1828596
-0.19849074 2.8649747 0.18123662
-0.17157292 2.8742139 0.17471457
-0.14580894 2.8836882 0.16584146
-0.12101799 2.8932383 0.15440881
-0.097019672 2.9027135 0.14020991
-0.074386537 2.9110825 0.12287986
-0.05368793 2.9172928 0.10205775
-0.037584543 2.9183676 0.077510953
-0.028722525 2.9113171 0.049010336
-0.024467289 2.9035194 0.033334494
-0.022172689 2.9023712 0.047258675
-0.024469614 2.9030874 0.074925303
-0.048767626 2.8979533 0.12243617
-0.033982217 2.9008782 0.10046548
-0.08793968 2.8938267 0.15314412
-0.066882551 2.8965414 0.13939166
-0.13654077 2.8774307 0.17624474
-0.11154068 2.8870394 0.16549397
-0.18801063 2.8553159 0.19048482
-0.16178417 2.8662655 0.18518144
-0.24447334 2.8377368 0.18600214
-0.21595854 2.8463366 0.19032532
-0.30001765 2.8173277 0.16862762
-0.27239895 2.8279164 0.17879999
-0.35474974 2.7939012 0.13973981
-0.32762343 2.8063843 0.15540582
-0.40584099 2.7611363 0.1031338
-0.3809188 2.778703 0.12224057
-0.45161128 2.7209966 0.061383784
-0.42921662 2.7416079 0.08263588
-0.47359645 2.7002232 0.040007591
-0.52634907 2.5631144 -0.12882125
-0.53006333 2.5584037 -0.13255852
-0.53362066 2.5625417 -0.13882148
-0.53023893 2.5676215 -0.13574302
-0.52776909 2.553211 -0.12682271
-0.52358902 2.5566013 -0.12226766
-0.5222581 2.5634115 -0.11607039
-0.52508897 2.5697391 -0.1207146
-0.52882409 2.5740836 -0.12687701
-0.53833044 2.5937889 -0.10783035
-0.54106814 2.5887387 -0.10673136
-0.53457701 2.5976765 -0.10656863
-0.53099239 2.5995786 -0.097896278
-0.53262192 2.599839 -0.10279447
-0.5282346 2.5961788 -0.093268037
-0.52516192 2.5911558 -0.089500666
-0.52258962 2.5860379 -0.087198794
-0.52071267 2.580538 -0.08556968
-0.51972163 2.5743945 -0.083835602
-0.52131128 2.5698893 -0.084106624
-0.52717042 2.569279 -0.088489652
-0.5333901 2.5711091 -0.093834519
-0.53607178 2.5738928 -0.096985459
-0.53750849 2.5778244 -0.099627495
-0.53998232 2.5830982 -0.10343772
-0.4800263 2.5356991 -0.014928281
-0.48341763 2.5397766 -0.012802601
-0.48626909 2.5434425 -0.02076596
-0.48216319 2.5403054 -0.023359358
-0.48440504 2.5461838 -0.0092579722
-0.48783728 2.5492146 -0.014450133
-0.48792553 2.5561063 -0.016271412
-0.48673722 2.5531528 -0.022019863
-0.48212534 2.5501883 -0.02462548
-0.47787386 2.5454113 -0.022849739
-0.47733867 2.5369236 -0.022559702
-0.47454613 2.5433347 -0.017072499
-0.47282553 2.5366666 -0.016776621
-0.4719165 2.5351279 -0.011507094
-0.4750402 2.5333464 -0.014747918
-0.47110885 2.5363629 -0.00078624487
-0.47512281 2.5381548 -0.00086766481
-0.46846509 2.5380929 -0.0013076663
-0.4641574 2.5468838 0.014238894
-0.46557546 2.5440485 0.015224934
-0.46843207 2.5456145 0.015173733
-0.45847237 2.5544417 0.029195249
-0.46093905 2.5560057 0.02955842
-0.45747495 2.5575254 0.027752101
-0.44951308 2.5689881 0.040341973
-0.45059401 2.5663021 0.042091787
-0.45310229 2.568166 0.042902291
-0.44273829 2.5783651 0.054898798
-0.44537777 2.5809424 0.055816591
-0.44137025 2.5802543 0.053121746
-0.43255568 2.5918128 0.065248728
-0.43436527 2.5908082 0.067116201
-0.43730044 2.5941637 0.068227589
-0.42494434 2.6037948 0.078252614
-0.42841244 2.6076405 0.080071807
-0.42256719 2.6042101 0.075857222
-0.41117442 2.6157057 0.086173832
-0.41384727 2.6156752 0.089036465
-0.41772729 2.6200116 0.091480494
-0.40044922 2.6248062 0.10019961
-0.40427375 2.6298645 0.10259578
-0.39814055 2.6246073 0.097399294
-0.38405097 2.6328394 0.10831439
-0.38598871 2.6332266 0.11114824
-0.38966882 2.638922 0.11356089
-0.37170255 2.643007 0.12128437
-0.3755157 2.6489117 0.12450683
-0.36949611 2.6423275 0.11770743
-0.35483378 2.6529229 0.12591773
-0.35730225 2.6535699 0.13065869
-0.36115181 2.6591837 0.1351504
-0.34251297 2.6643403 0.13932729
-0.34588403 2.6691401 0.14519402
-0.34041274 2.6644933 0.13327664
-0.32526892 2.6757004 0.14000168
-0.32677722 2.6747782 0.1470677
-0.32950073 2.6788552 0.15401387
-0.3095417 2.6843445 0.15366846
-0.31178313 2.6884601 0.16096985
-0.30842555 2.6852224 0.14629143
-0.29037654 2.6940286 0.15121239
-0.29108667 2.6934826 0.15834552
-0.292853 2.6978796 0.16558391
-0.27169192 2.7026479 0.16031599
-0.27283341 2.7070348 0.16737306
-0.27161443 2.7031128 0.15383542
-0.25201839 2.7115986 0.15435433
-0.25141507 2.7109721 0.15988684
-0.25193512 2.7152479 0.16652042
-0.23031139 2.7176087 0.15735567
-0.23036677 2.7218254 0.16319627
-0.23146218 2.7186306 0.15297139
-0.21078551 2.725035 0.14911449
-0.20915234 2.7236373 0.15258926
-0.20873535 2.7277515 0.15772086
-0.18871439 2.7301576 0.14544374
-0.18765074 2.7339919 0.15041542
-0.19083083 2.7316182 0.14222109
-0.17131811 2.7383268 0.13366228
-0.1687814 2.7366951 0.13669485
-0.16709554 2.7401378 0.14162982
-0.14914119 2.7427766 0.12712246
-0.14705521 2.7457922 0.13171226
-0.15196711 2.7450955 0.1248045
-0.13373339 2.7519734 0.11432302
-0.13050926 2.7492034 0.11611563
-0.12791479 2.7519419 0.12049526
-0.11360592 2.7567718 0.10307634
-0.11007226 2.7595971 0.10780942
-0.11756897 2.7590168 0.10088819
-0.10354269 2.7652366 0.085013747
-0.09900707 2.7636297 0.087634325
-0.094654799 2.7666137 0.092663765
-0.087288022 2.7679312 0.069430113
-0.082781315 2.7708704 0.074070036
-0.091725588 2.7696469 0.06723386
-0.082465589 2.7721822 0.048058689
-0.077701688 2.7698028 0.049663603
-0.072738409 2.7721245 0.05390954
-0.069500089 2.7693737 0.029538214
-0.062790453 2.770191 0.034064174
-0.076109111 2.7727644 0.027994692
-0.071675718 2.7729027 0.016945899
-0.065395892 2.7703798 0.014037907
-0.057831645 2.7705886 0.018591106
-0.4780516 2.5438807 0.000454247
-0.48100096 2.5518777 0.00032788515
-0.47103012 2.5527513 0.015812159
-0.47434437 2.5629847 0.01453948
-0.46320689 2.5633843 0.030077755
-0.46652019 2.574157 0.028490007
-0.45507973 2.5752923 0.043556511
-0.45815283 2.5856931 0.042094886
-0.44715363 2.5879571 0.056555688
-0.44985586 2.5979087 0.055262864
-0.43898362 2.6010892 0.069102705
-0.44128633 2.6105425 0.068006694
-0.43011391 2.6144016 0.081234038
-0.43209904 2.6233308 0.080343068
-0.41975963 2.6270435 0.092841536
-0.42181301 2.6359503 0.09209919
-0.40712625 2.6381853 0.10382256
-0.40994507 2.6480644 0.10310611
-0.39317459 2.6484115 0.11459598
-0.39663005 2.6592276 0.11377725
-0.37887299 2.6582916 0.12559381
-0.38201219 2.6689913 0.12451535
-0.36407113 2.6680119 0.1364224
-0.36660552 2.6782939 0.13502389
-0.34860873 2.6777561 0.14668939
-0.3509376 2.6880534 0.14501214
-0.33209622 2.6873825 0.15567213
-0.33442515 2.6978076 0.15383446
-0.31414598 2.6967571 0.16263849
-0.3164736 2.7070696 0.16085458
-0.29503989 2.7058623 0.1675154
-0.29745495 2.7158768 0.16631275
-0.27505887 2.7146809 0.17022359
-0.27773303 2.7242758 0.17044157
-0.25436151 2.7229364 0.17046368
-0.25739664 2.7324274 0.17227817
-0.23311579 2.7303631 0.16792929
-0.23653072 2.7405298 0.17083943
-0.21165085 2.7369258 0.16293633
-0.21527541 2.747627 0.16655433
-0.19029295 2.7426031 0.15581155
-0.19377518 2.7528131 0.15983611
-0.16935372 2.7481878 0.14742213
-0.17259306 2.7580063 0.15199304
-0.14913785 2.7544749 0.13864654
-0.15229785 2.765147 0.14432663
-0.12978685 2.7610466 0.12847018
-0.13288617 2.7723281 0.13502938
-0.11143339 2.7674716 0.11587471
-0.11435449 2.7776439 0.12229067
-0.095263958 2.7732427 0.100609
-0.097709 2.7822011 0.10673779
-0.082467079 2.7778628 0.082412243
-0.083956838 2.7870977 0.088993669
-0.071489513 2.7797477 0.062968314
-0.072260261 2.7897685 0.070218742
-0.060785055 2.777312 0.043954372
-0.061786056 2.7876689 0.051564932
-0.055044949 2.777159 0.028390706
-0.057602882 2.7858164 0.037145913
-0.48505235 2.5605018 -0.0040911436
-0.487331 2.5666506 -0.010141909
-0.47933793 2.57388 0.0087592006
-0.48271734 2.5816047 0.0017511845
-0.47212827 2.5858948 0.022541463
-0.47639382 2.5943673 0.015537083
-0.46393472 2.59741 0.036552608
-0.46861178 2.6060407 0.02998358
-0.45526755 2.6092904 0.05008769
-0.45963138 2.6177356 0.043849885
-0.44609785 2.6214321 0.063211441
-0.44988495 2.6295311 0.05729109
-0.43640566 2.6337121 0.075995564
-0.43980885 2.6415226 0.070472896
-0.42574453 2.6459067 0.08822608
-0.42877275 2.6533315 0.083164632
-0.41367352 2.6578133 0.099685699
-0.41615278 2.6645806 0.095138222
-0.40015936 2.6689494 0.1106104
-0.40211356 2.6752102 0.10645425
-0.3851648 2.6788623 0.12122944
-0.38680446 2.6851909 0.11716348
-0.3692854 2.6882741 0.13149583
-0.37066633 2.6948526 0.12736946
-0.35312831 2.6978991 0.14136297
-0.35414684 2.7045219 0.13719073
-0.33634329 2.7076099 0.15030646
-0.33715647 2.7143695 0.14625072
-0.31860268 2.7172539 0.15780479
-0.3196106 2.7245595 0.15418488
-0.29990035 2.7263772 0.16414511
-0.30115348 2.7342045 0.16115439
-0.28023499 2.7345259 0.16960657
-0.28143221 2.7424352 0.16731298
-0.25974929 2.7421253 0.17252517
-0.26063931 2.7497056 0.1706202
-0.2385788 2.7496455 0.17121738
-0.23896801 2.7564733 0.16903639
-0.21698427 2.7563384 0.16687667
-0.21689224 2.7625959 0.16438854
-0.19522649 2.7614524 0.16069287
-0.194893 2.7679074 0.15850627
-0.17385769 2.7667754 0.15325379
-0.173397 2.7735579 0.15113169
-0.15344322 2.7740972 0.14515084
-0.15284383 2.7806585 0.14201099
-0.13399196 2.7815678 0.13516384
-0.13334805 2.7881386 0.13084882
-0.11551332 2.7873509 0.12207574
-0.11503774 2.7949021 0.1173588
-0.098861516 2.7921627 0.10632831
-0.098732769 2.8005078 0.10137796
-0.084882319 2.7967188 0.088365436
-0.085267723 2.8044765 0.082773924
-0.073361874 2.7993071 0.069046676
-0.074765146 2.8062088 0.06253469
-0.064095557 2.7981699 0.04925549
-0.067350686 2.8050759 0.041679859
-0.058733821 2.7935994 0.031751335
-0.063955069 2.7993948 0.030148923
-0.48118985 2.5823433 -0.0032072663
-0.48496306 2.5671928 -0.015154421
-0.47719747 2.5779083 -0.0045896173
-0.48050481 2.563545 -0.017177045
-0.46834528 2.6072428 0.02543968
-0.47566313 2.5953858 0.010785341
-0.46507204 2.6027615 0.024115741
-0.47210991 2.590811 0.0095553994
-0.44912571 2.630554 0.052832246
-0.45918632 2.6188462 0.039372742
-0.44579679 2.6260021 0.051185191
-0.45590633 2.6143 0.03792119
-0.42810678 2.6546528 0.07885617
-0.43908739 2.6427429 0.066055357
-0.42508745 2.6505907 0.076671898
-0.43592077 2.6384823 0.064111173
-0.40084434 2.6756351 0.10267022
-0.41522056 2.6655285 0.091051608
-0.39760303 2.670768 0.10058403
-0.41210932 2.6611593 0.088843167
-0.36929917 2.694916 0.12418169
-0.38539577 2.6852582 0.1137335
-0.36630946 2.6896183 0.1223579
-0.38217735 2.6799839 0.11184254
-0.33616143 2.7156742 0.14283532
-0.35297936 2.7051423 0.13393903
-0.33403468 2.7117641 0.14036128
-0.35046494 2.7005212 0.13185704
-0.30000156 2.7361929 0.15748996
-0.31858021 2.726208 0.15070122
-0.29767728 2.7324417 0.15413988
-0.31641382 2.7224009 0.14788103
-0.25929302 2.752857 0.1659767
-0.28019893 2.7450359 0.1631456
-0.25710046 2.7504303 0.16091657
-0.27790403 2.7418907 0.15885127
-0.21511084 2.7659357 0.15957522
-0.23740029 2.759762 0.16427583
-0.21305561 2.7642052 0.15467602
-0.23526669 2.7577417 0.15924525
-0.17144692 2.7774255 0.14554709
-0.19301367 2.7715847 0.15340263
-0.16968304 2.776191 0.13964885
-0.19111246 2.7701929 0.14806128
-0.13121331 2.7913759 0.12407494
-0.15076244 2.7841647 0.13580555
-0.12953472 2.789572 0.11789471
-0.14902192 2.7826521 0.12970269
-0.097341657 2.8046081 0.093882978
-0.11305201 2.79861 0.11026084
-0.09654969 2.803057 0.087235808
-0.11163604 2.7969291 0.10390806
-0.076442361 2.8083351 0.05377233
-0.085147381 2.8080838 0.074479938
-0.078231096 2.805537 0.046620369
-0.08549279 2.806309 0.067367852
-0.066373587 2.7971342 0.019909859
-0.07119298 2.8046577 0.033491254
-0.070606232 2.7901747 0.014063835
-0.074519515 2.7996094 0.027306437
-0.068110347 2.7765291 0.0081558824
-0.06274122 2.7788699 0.011541307
-0.073621273 2.7769368 0.012287319
-0.074819267 2.7822583 0.015776098
-0.073197186 2.7849195 0.012016296
-0.46935385 2.5611327 0.0050910115
-0.47290289 2.5496747 -0.0090958476
-0.47649926 2.557133 -0.014253139
-0.4731909 2.5701406 -0.00088220835
-0.45604986 2.5844834 0.032278717
-0.46355379 2.5728438 0.018841326
-0.46789521 2.5825207 0.013136208
-0.46071965 2.5943639 0.027212203
-0.43787456 2.6071942 0.058118105
-0.44737905 2.5957196 0.045510113
-0.45175624 2.6057703 0.040756762
-0.44188458 2.6173766 0.053710938
-0.4167037 2.631305 0.080906332
-0.42786413 2.6195619 0.069665849
-0.43198627 2.6298726 0.066012084
-0.42104828 2.6418545 0.077985704
-0.38950604 2.6496551 0.10389161
-0.40374529 2.6409004 0.092575163
-0.40806097 2.6519692 0.089945763
-0.39363772 2.6611259 0.1015352
-0.35926968 2.6690648 0.12313044
-0.37450594 2.6588948 0.1140478
-0.37839186 2.6702807 0.11237887
-0.36282742 2.6801322 0.1223166
-0.32874602 2.6920311 0.13852471
-0.34432352 2.6805708 0.13121593
-0.34744668 2.6914065 0.1311855
-0.3314442 2.7028806 0.13911951
-0.29328763 2.711417 0.15078044
-0.31160474 2.7020843 0.14527497
-0.31400931 2.7132995 0.1462557
-0.29541397 2.7230632 0.15209955
-0.25414824 2.7293956 0.15563589
-0.27417082 2.7207444 0.1543442
-0.27591872 2.732578 0.1561538
-0.25545549 2.7413065 0.15775239
-0.21181232 2.7432296 0.1503194
-0.2331059 2.7366989 0.15432453
-0.23395807 2.7486894 0.15623444
-0.21213943 2.7552421 0.15192312
-0.17073739 2.7560337 0.13499141
-0.19104159 2.7496088 0.14352965
-0.19071043 2.7614548 0.14514774
-0.16977179 2.7676556 0.13657749
-0.13209581 2.7696788 0.1147067
-0.1508323 2.7627399 0.12572652
-0.14942229 2.7741735 0.12686676
-0.13025707 2.7810357 0.115372
-0.10097259 2.782882 0.084546804
-0.11529434 2.7767928 0.10091704
-0.11286223 2.7883222 0.10142976
-0.098212719 2.7944567 0.084825337
-0.08162111 2.787689 0.045993745
-0.089669228 2.7867372 0.065799713
-0.087280691 2.7979114 0.06532985
-0.079976022 2.7976458 0.044961154
-0.077064991 2.785064 0.02644223
-0.076219082 2.7926352 0.025737584
-0.058949113 2.7858617 0.019294024
-0.077828407 2.7782171 0.027081311
-0.083110988 2.7786748 0.046930969
-0.091836572 2.776614 0.066232264
-0.10347193 2.7723978 0.084297836
-0.11749756 2.7663548 0.10045272
-0.13375854 2.7593858 0.11411029
-0.15210468 2.7523973 0.12468946
-0.17161018 2.7455132 0.13355696
-0.19134539 2.738878 0.14207023
-0.21151775 2.7323549 0.1488713
-0.23233414 2.7258298 0.15260011
-0.25296819 2.7186201 0.15372014
-0.27259058 2.7100356 0.15270793
-0.29135925 2.7008789 0.14958715
-0.30942726 2.6919334 0.144389
-0.3263042 2.6822107 0.13798547
-0.34150112 2.670747 0.13124344
-0.35604554 2.6590388 0.12386903
-0.37098807 2.6485989 0.11556059
-0.38576978 2.6392648 0.10602376
-0.39983922 2.6308758 0.094958603
-0.41277277 2.6217506 0.083548427
-0.42413461 2.6102359 0.072974861
-0.43424493 2.597975 0.062105834
-0.44342017 2.586623 0.049814165
-0.45182508 2.5755322 0.03686583
-0.45962411 2.5640857 0.024006069
-0.46588039 2.5529745 0.010495722
-0.4696458 2.5429251 -0.0044272542
-0.3082999 2.5715683 0.082233727
-0.31564581 2.5732319 0.078527689
-0.3155129 2.5765698 0.077014863
-0.31039178 2.5782063 0.078966081
-0.31786954 2.5809438 0.076252759
-0.31594414 2.5837448 0.075391233
-0.31146407 2.5849679 0.077043176
-0.31157184 2.5698993 0.083890259
-0.31417024 2.5702536 0.084262908
-0.32167971 2.5720112 0.081508994
-0.31931174 2.5720518 0.080529809
-0.31433547 2.5720356 0.085166633
-0.3205291 2.5734088 0.08322376
-0.32121509 2.5773284 0.082349002
-0.32341766 2.5772979 0.080632627
-0.32147807 2.5783722 0.079015076
-0.30132478 2.5849206 0.081798732
-0.29789793 2.5760424 0.085901499
-0.30613768 2.5932457 0.077940881
-0.29557228 2.6037467 0.080750763
-0.29004002 2.5939415 0.084863961
-0.28593493 2.5837448 0.089373261
-0.27827048 2.6025302 0.087502748
-0.2739116 2.5917895 0.092500538
-0.28393322 2.6129782 0.083010137
-0.27159011 2.6215479 0.084265769
-0.26605064 2.6107967 0.089086086
-0.26164216 2.5998862 0.094569623
-0.25341272 2.6188796 0.088974565
-0.24893951 2.6077344 0.094865024
-0.25890487 2.6300585 0.084058464
-0.24598044 2.6383073 0.082707584
-0.2405557 2.626797 0.087675095
-0.23600686 2.615413 0.093965262
-0.22766662 2.6345475 0.085694969
-0.22304767 2.6230419 0.092428684
-0.23290825 2.6461165 0.080520093
-0.21983343 2.6532309 0.077038586
-0.21495628 2.6418674 0.08229202
-0.21043169 2.6305397 0.089283884
-0.202631 2.648505 0.076729238
-0.19853878 2.6378548 0.083540976
-0.20688546 2.6594107 0.071801603
-0.19420278 2.665426 0.06554383
-0.19042599 2.6547072 0.070100248
-0.18667513 2.6445606 0.076693118
-0.17809868 2.6607134 0.063496292
-0.17415601 2.6502483 0.07021898
-0.18191093 2.6720316 0.058999181
-0.16993201 2.6784608 0.051683843
-0.16601264 2.6662276 0.056172311
-0.16184443 2.6550906 0.06298238
-0.15454924 2.6709559 0.047386348
-0.15061349 2.6592281 0.05384171
-0.15818262 2.6839173 0.043133438
-0.14712745 2.6880782 0.033239901
-0.14358771 2.6745179 0.037543476
-0.13972682 2.6624053 0.043832362
-0.13303125 2.6765254 0.027059674
-0.12844932 2.6643412 0.033987463
-0.13724136 2.6905801 0.021917701
-0.12792724 2.6926591 0.0099408627
-0.12333035 2.6783841 0.015787661
-0.11820656 2.6662886 0.023398101
-0.11496055 2.6814716 0.0035905242
-0.11041993 2.6695058 0.011144519
-0.11859423 2.6955221 -0.0019147992
-0.1103133 2.6964982 -0.0073843598
-0.10808426 2.6834729 -0.0029602051
-0.10673523 2.6744964 0.0046845078
-0.30990148 2.5945928 0.076997757
-0.31263483 2.5924118 0.077743232
-0.30260539 2.604759 0.080847323
-0.29976177 2.6063635 0.079937279
-0.28790283 2.6162932 0.082305253
-0.2904458 2.615073 0.083426952
-0.27716273 2.6244261 0.085465491
-0.27508366 2.6253316 0.083869517
-0.26205719 2.6344178 0.084412098
-0.2637741 2.6338379 0.086949319
-0.24998623 2.6426089 0.087369084
-0.24870443 2.6430199 0.083832026
-0.2348994 2.6506307 0.082039416
-0.2355125 2.6500123 0.086218268
-0.22099572 2.6569731 0.083394349
-0.22104108 2.6576016 0.078792989
-0.2075215 2.6643035 0.073857069
-0.20707422 2.6643798 0.078813076
-0.19366276 2.6721961 0.073220789
-0.1944201 2.6711876 0.067910254
-0.18182123 2.678695 0.061639488
-0.1806668 2.680393 0.06736213
-0.16823161 2.6879909 0.060038984
-0.1696741 2.6858594 0.054248393
-0.15792656 2.6916907 0.0449332
-0.15650111 2.6940238 0.05005759
-0.14562881 2.6990073 0.038218081
-0.14699477 2.6963255 0.033962429
-0.13730633 2.6998651 0.021612704
-0.13575149 2.703491 0.025306761
-0.12610757 2.7070501 0.012378454
-0.12799412 2.7026985 0.0089221597
-0.11818433 2.7051847 -0.0030619502
-0.11591905 2.7092917 0.00046557188
-0.109945 2.7078078 -0.003505528
-0.1095826 2.7053607 -0.0084225535
-0.31700408 2.5852082 0.081986964
-0.3156358 2.5877669 0.080406368
-0.31650776 2.5820062 0.083892226
-0.30491507 2.5897105 0.086340815
-0.30589181 2.5943 0.084326923
-0.30496722 2.5982225 0.083073139
-0.29353923 2.6031291 0.086410642
-0.292651 2.607692 0.085379064
-0.29252452 2.5978711 0.088465512
-0.27953964 2.6058939 0.090621591
-0.28039944 2.6114805 0.088573575
-0.2793926 2.6164849 0.087551922
-0.26691151 2.6191666 0.091152638
-0.26589745 2.6248901 0.089826077
-0.26616573 2.6131542 0.093171179
-0.25265265 2.6204078 0.09522298
-0.25322831 2.6266887 0.093145907
-0.25211531 2.6329291 0.091327369
-0.23950624 2.6345375 0.093560278
-0.238011 2.6405694 0.091207653
-0.23927039 2.6283681 0.095899194
-0.22584093 2.6362369 0.095005572
-0.2257216 2.6422493 0.092359334
-0.22384655 2.6479862 0.089421451
-0.21184999 2.6493604 0.089513779
-0.20990223 2.6553104 0.085937798
-0.21218735 2.6431978 0.092355609
-0.19848728 2.6497848 0.08863464
-0.19806069 2.6563036 0.085608959
-0.19621933 2.6627247 0.081411004
-0.18452889 2.6635129 0.081234753
-0.18285024 2.670409 0.076505601
-0.18491149 2.6565096 0.084533036
-0.17159176 2.6632373 0.079630911
-0.17135704 2.6706011 0.075817168
-0.1699307 2.6777656 0.070339978
-0.15864921 2.6772115 0.068778574
-0.15761238 2.6841667 0.06205219
-0.15865612 2.6698468 0.073508441
-0.14608014 2.6755521 0.066069841
-0.14641678 2.6828768 0.060257673
-0.14592361 2.6896069 0.052105069
-0.13466877 2.6871521 0.050391138
-0.13489366 2.6940854 0.040963709
-0.13383186 2.6795795 0.057225883
-0.12137723 2.6828926 0.048576713
-0.12280321 2.6906135 0.040676892
-0.12386131 2.6976917 0.029940546
-0.1102128 2.6938522 0.032625616
-0.11216891 2.7004998 0.020372093
-0.10818446 2.6864455 0.041724384
-0.098484218 2.6888673 0.034838498
-0.10064679 2.695358 0.026204288
-0.10318452 2.7006433 0.013640285
-0.3121869 2.5776989 0.086334348
-0.30684257 2.5740764 0.088237882
-0.29436588 2.5795615 0.092668504
-0.30007696 2.5840333 0.089777857
-0.28763711 2.5915563 0.092489451
-0.28191042 2.586673 0.09600538
-0.26936579 2.5946004 0.098196298
-0.27487928 2.5994689 0.09465915
-0.26181793 2.6069725 0.096480638
-0.25661713 2.6025102 0.099185318
-0.24370152 2.6103551 0.099385142
-0.24862474 2.614475 0.097692668
-0.23546338 2.6223443 0.09804979
-0.23065615 2.618088 0.099198461
-0.21772665 2.6255624 0.097485214
-0.2223202 2.630049 0.096872121
-0.20918429 2.6370175 0.093484849
-0.20514339 2.6326292 0.093109995
-0.19250035 2.6391728 0.08766672
-0.19596845 2.643512 0.089027792
-0.18258899 2.6497719 0.084643066
-0.17939031 2.6450884 0.082751155
-0.16633767 2.650686 0.077530444
-0.16934228 2.6559403 0.079751492
-0.15653491 2.6621397 0.073779523
-0.15385282 2.6563122 0.071162879
-0.14169502 2.6611774 0.06373471
-0.14405334 2.6675184 0.066635668
-0.13177305 2.6712315 0.058229506
-0.12961549 2.6645119 0.055339813
-0.11743784 2.667412 0.047168434
-0.11928296 2.6743581 0.050074279
-0.10615736 2.6779873 0.043682873
-0.10498309 2.6709831 0.040410101
-0.096260548 2.6752174 0.03363651
-0.096602976 2.6813233 0.03747648
-0.3032828 2.5729172 0.088526279
-0.30070382 2.5729768 0.088029563
-0.28831887 2.5792606 0.092186987
-0.29077137 2.5785539 0.093043715
-0.27838725 2.5857289 0.096531928
-0.27604479 2.5867088 0.095597506
-0.26366711 2.5946958 0.097811699
-0.26595134 2.5936797 0.098734856
-0.25328928 2.6016676 0.09938702
-0.25097829 2.6025937 0.098378062
-0.23808295 2.6103776 0.097903907
-0.24043477 2.6095521 0.099115014
-0.22744018 2.6172149 0.098527104
-0.22509116 2.6180036 0.097004384
-0.21237761 2.6254866 0.094500035
-0.21463895 2.6246479 0.096387714
-0.20237815 2.6318333 0.091448814
-0.20031965 2.6328127 0.089216739
-0.188236 2.6395433 0.082842767
-0.19007659 2.6384656 0.085430682
-0.1771515 2.6442149 0.08005017
-0.17544609 2.6452262 0.077050745
-0.16277188 2.6502197 0.070730984
-0.16429031 2.6494572 0.074317515
-0.15217686 2.6545742 0.067227066
-0.15103924 2.6548674 0.062785268
-0.13961393 2.6586945 0.053929389
-0.14038289 2.6589077 0.059164643
-0.12847513 2.6618412 0.050504029
-0.12786222 2.6612256 0.044887602
-0.11665106 2.6636093 0.035558283
-0.11675584 2.6644886 0.041857898
-0.10551715 2.6679823 0.033823073
-0.10685563 2.6670101 0.025852323
-0.10033876 2.6720126 0.017782032
-0.097650647 2.6721709 0.02696389
-0.097858906 2.6936424 0.021380484
-0.10026574 2.696255 0.011128128
-0.096505463 2.6887596 0.026087821
-0.099032283 2.6872532 0.014479816
-0.094831824 2.6835744 0.029890716
-0.095272839 2.6801021 0.0254094
-0.09896034 2.6792147 0.013369024
-0.096037686 2.676923 0.021840632
-0.12484634 2.704273 0.019947827
-0.11399412 2.7066858 0.0089671612
-0.10589647 2.7062023 0.001237452
-0.14546418 2.6958778 0.044513881
-0.13509798 2.7005494 0.03218019
-0.16860545 2.6844261 0.065241933
-0.15664709 2.6906431 0.055788577
-0.1945098 2.6687 0.077502072
-0.18128395 2.6768405 0.072095096
-0.22209984 2.6533277 0.086687535
-0.20808983 2.6608455 0.082608521
-0.25108099 2.6387341 0.089635432
-0.2366122 2.646199 0.089014411
-0.27845818 2.621134 0.086607605
-0.26495361 2.6302297 0.088587791
-0.30410558 2.6018732 0.081902564
-0.29182303 2.6119473 0.084414959
-0.31967157 2.5793741 0.077506244
-0.3143627 2.5901597 0.078932464
-0.30915558 2.5695674 0.083545625
-0.31710404 2.572099 0.079617977
-0.2983014 2.5730369 0.087566316
-0.28603715 2.5799201 0.091389477
-0.27386063 2.5876305 0.094723612
-0.26153988 2.5956419 0.096949458
-0.24882549 2.6034615 0.097435564
-0.23589373 2.61114 0.096777856
-0.22290725 2.6187346 0.095585018
-0.21027339 2.6262629 0.09273991
-0.19840479 2.6337144 0.087144703
-0.1865263 2.640537 0.080437362
-0.17386168 2.6461647 0.074253857
-0.16136301 2.6509202 0.067396224
-0.14998364 2.6551392 0.058648884
-0.13890159 2.6584895 0.049058139
-0.12729329 2.6606419 0.039657533
-0.11656058 2.6627805 0.029697955
-0.10810447 2.6660974 0.018431783
-0.10313833 2.6720388 0.0085363984
-0.10415494 2.6928918 -0.00019174814
-0.10389245 2.7012737 -0.0012480617
-0.10286331 2.6820619 0.0026967525
0.12938154 3.1690781 -0.6171456
0.15341198 3.1702235 -0.61551028
0.1530292 3.1608155 -0.61598986
0.12894523 3.1596081 -0.61807793
0.1855303 3.1725862 -0.61103159
0.18520248 3.1634328 -0.6109187
0.18476176 3.1548402 -0.60950619
0.15251613 3.1522458 -0.61483079
0.12841725 3.1514165 -0.61709481
0.21684158 3.1762211 -0.60553914
0.21649611 3.1679103 -0.60476345
0.24766505 3.1813281 -0.59621853
0.24734855 3.1737864 -0.59495503
0.24699938 3.1661851 -0.59262258
0.21608436 3.1597664 -0.60284442
0.27831268 3.1880786 -0.58024853
0.27818835 3.18063 -0.57892472
0.30779469 3.19508 -0.56085545
0.3079524 3.1871912 -0.55964631
0.30806983 3.1797173 -0.55753535
0.27803123 3.1732495 -0.57661241
0.33511496 3.2009394 -0.54127544
0.33558285 3.1922486 -0.54009753
0.36072695 3.2066181 -0.52084833
0.36151588 3.1972659 -0.51971763
0.36225903 3.1889904 -0.51781017
0.33601177 3.1843584 -0.53810781
0.3850801 3.2131169 -0.49892861
0.38618183 3.203696 -0.4979561
0.40744448 3.2213471 -0.47549599
0.40877593 3.212393 -0.47474176
0.4099468 3.2044313 -0.47296828
0.38719273 3.1954114 -0.49612933
0.42709661 3.2322695 -0.45053655
0.42849803 3.2242053 -0.44998902
0.44289804 3.244931 -0.4238382
0.44431889 3.2376115 -0.42336005
0.44542253 3.2308156 -0.42154986
0.4296459 3.2168329 -0.44822615
0.4537096 3.2583468 -0.39517993
0.45522213 3.2510979 -0.39451689
0.46100843 3.2727458 -0.36564058
0.46260214 3.2654212 -0.36475891
0.46386886 3.2591145 -0.36271757
0.45639169 3.2445638 -0.39257687
0.4662559 3.2883141 -0.33627802
0.46786523 3.2813756 -0.33539402
0.4689275 3.3053749 -0.30762285
0.47055471 3.2988346 -0.30672872
0.47184765 3.2934597 -0.30475599
0.46916795 3.2755196 -0.33336645
0.46848559 3.3242171 -0.28018993
0.47022462 3.3176782 -0.27907985
0.46533263 3.3446157 -0.25426584
0.46734536 3.3380792 -0.25293875
0.46866739 3.3331959 -0.2508691
0.47147489 3.3126438 -0.27712077
0.4598738 3.3663194 -0.230129
0.46239221 3.3601773 -0.22880304
0.45222402 3.3884852 -0.20724112
0.45523512 3.3827751 -0.20590758
0.45713794 3.377785 -0.20319498
0.46403623 3.3552802 -0.22641963
0.44250107 3.4102685 -0.18508095
0.44573534 3.4046309 -0.18349916
0.42923343 3.4314144 -0.16569126
0.43250549 3.4257905 -0.16373825
0.43401372 3.4208148 -0.16076976
0.44753575 3.3996274 -0.18062741
0.4109447 3.4517176 -0.15113688
0.41413748 3.4462712 -0.14878988
0.38905072 3.4704072 -0.14101708
0.39196408 3.4654109 -0.13838792
0.39290833 3.4609187 -0.13526809
0.41535521 3.441375 -0.14568704
0.36496282 3.4867256 -0.1349299
0.36732006 3.482559 -0.13226688
0.3400898 3.4972584 -0.1330238
0.34164488 3.4937623 -0.13031125
0.34204471 3.4909604 -0.12764454
0.36803126 3.4790342 -0.12939823
0.31584775 3.4985774 -0.13544893
0.3163904 3.4951065 -0.13241297
0.29356074 3.4953167 -0.13951498
0.29322565 3.4916356 -0.13615149
0.2925998 3.4877446 -0.13301206
0.31626797 3.4918964 -0.12955749
0.2291106 3.470557 -0.14009535
0.23550069 3.4755585 -0.1393525
0.23460555 3.4807346 -0.14475131
0.22846949 3.4784906 -0.14746922
0.2408644 3.4791949 -0.14084363
0.2412883 3.4825532 -0.14387923
0.24290848 3.4857953 -0.14671057
0.23908484 3.4868734 -0.14942718
0.23428726 3.4876397 -0.15395004
0.15175021 3.1453927 -0.61039752
0.12776923 3.1456077 -0.61238581
0.18410957 3.1474268 -0.60550243
0.18418097 3.1435683 -0.60128778
0.15185153 3.1422303 -0.6054433
0.13442349 3.1440628 -0.60782665
0.21554172 3.1520321 -0.59865373
0.24659133 3.1584938 -0.58816403
0.2467078 3.1539943 -0.58400363
0.21562421 3.1476796 -0.59456044
0.2778089 3.166044 -0.57232946
0.30809879 3.1731145 -0.55362087
0.30830765 3.1696117 -0.54997128
0.27795923 3.1619189 -0.56836218
0.33636904 3.178108 -0.53450221
0.36291134 3.1829259 -0.51436442
0.36333239 3.1804702 -0.51122516
0.33669615 3.1752651 -0.53118056
0.38802564 3.1894596 -0.492598
0.41079032 3.1985147 -0.46916789
0.41103017 3.1954195 -0.46558255
0.38842821 3.186856 -0.4893505
0.43029726 3.2109039 -0.44403809
0.44588137 3.2251041 -0.41706389
0.44552743 3.2209446 -0.41262186
0.43019128 3.2071617 -0.43995601
0.45687914 3.2395155 -0.38810116
0.46447349 3.2548735 -0.35836416
0.46445739 3.2515628 -0.35424829
0.45666027 3.2356761 -0.38374382
0.46984887 3.2718699 -0.32906723
0.47245729 3.2904618 -0.30062956
0.47222638 3.2877276 -0.29680616
0.46979427 3.268821 -0.3250643
0.47174454 3.310621 -0.2734639
0.46859789 3.3316529 -0.24731636
0.46800947 3.3299687 -0.24413407
0.47132432 3.3086016 -0.2701093
0.46390843 3.3528936 -0.22193056
0.45681417 3.3743074 -0.19773591
