# .PCD v0.7 - Point Cloud Data file format
VERSION 0.7
FIELDS x y z
SIZE 4 4 4
TYPE F F F
COUNT 1 1 1
WIDTH 1419
HEIGHT 1
VIEWPOINT 0 0 0 1 0 0 0
POINTS 1419
DATA ascii
-0.20779929 2.8526201 0.041172028
-0.21799529 2.8536 0.045840979
-0.22969416 2.8535497 0.046662331
-0.24160045 2.8524468 0.039577961
0.1431677 2.8643839 0.03660512
0.13123211 2.8672829 0.039016724
0.11934668 2.8672087 0.039837837
0.10747828 2.8671377 0.039945841
0.095604762 2.8670673 0.039340496
0.083735034 2.8670018 0.040875673
0.068893157 2.866317 0.040264606
0.053045519 2.8658259 0.039435387
0.042248398 2.8667665 0.043394327
0.030459739 2.8696578 0.046517372
0.018579319 2.8666327 0.04503727
0.0077105239 2.8655839 0.044606686
-0.0051169768 2.866498 0.0452528
-0.020310842 2.8693578 0.038415909
-0.041888483 2.8652992 0.041252375
-0.052528448 2.8662443 0.044971943
-0.064213373 2.8661871 0.047219515
-0.072884686 2.8690951 0.05031395
-0.084695019 2.8690331 0.050421953
-0.11126057 2.868896 0.050664663
-0.12326213 2.86588 0.048472643
-0.13575149 2.8657982 0.042163372
-0.14703757 2.8657596 0.047262669
-0.15902263 2.8656931 0.045944691
-0.17110366 2.8656261 0.043914318
-0.18329367 2.8655603 0.041170835
-0.19475165 2.8655148 0.044130802
-0.20696589 2.8654447 0.041387558
-0.21869382 2.8653929 0.042209148
-0.23125094 2.8643553 0.043935776
-0.23969436 2.8623259 0.040098667
0.1311729 2.8791358 0.039663315
0.11929308 2.8790658 0.039771318
0.10741615 2.878988 0.039878845
0.098497376 2.8819082 0.037981033
0.082668558 2.8798313 0.039919853
0.069983885 2.8793638 0.038681746
0.052952476 2.8796573 0.039238691
0.042057235 2.8756416 0.038171053
0.027373724 2.8755531 0.044013262
0.018340804 2.8784685 0.040689468
0.0064952746 2.8783977 0.041510582
-0.0045236722 2.879333 0.03881073
-0.020229407 2.8812125 0.041915655
-0.043928184 2.875159 0.041808844
-0.053953983 2.8770831 0.040105343
-0.064753301 2.8780091 0.041446924
-0.076113917 2.877933 0.047972202
-0.087880291 2.877871 0.048792839
-0.098618187 2.8787966 0.050133944
-0.11059751 2.8767695 0.048233509
-0.12347855 2.8776865 0.047690868
-0.13575265 2.8776376 0.043522358
-0.14695629 2.8775678 0.049332857
-0.15893114 2.8775086 0.048015356
-0.17100626 2.8774545 0.045985222
-0.18453348 2.8764129 0.040346861
-0.19511446 2.8773422 0.042638302
-0.20724255 2.8772902 0.040608644
0.1311214 2.8909979 0.039596319
0.095478974 2.8907857 0.039206982
0.083619118 2.8906775 0.044307947
0.068752542 2.890614 0.041114092
0.053891823 2.8905337 0.040298462
0.0449479 2.8904929 0.038953304
0.027097069 2.8933558 0.039277315
0.021187149 2.8873901 0.039007902
0.0034404323 2.8931973 0.042346001
-0.0055928454 2.8931711 0.0395751
-0.018307962 2.8910983 0.042436361
-0.026372485 2.8900883 0.039602757
-0.044178404 2.8870237 0.039603472
-0.052795835 2.8869483 0.04396224
-0.064722501 2.889854 0.043519258
-0.076526321 2.8897858 0.044340372
-0.088555954 2.8897364 0.042310238
-0.099357314 2.8886878 0.043068171
-0.11291216 2.8885944 0.046045303
-0.12355482 2.8895066 0.048336029
-0.13590482 2.8894818 0.043455839
-0.14758736 2.8894112 0.044989109
-0.15975502 2.8893714 0.042247057
-0.1687935 2.8863685 0.040741205
-0.18657157 2.8862815 0.040904045
-0.19490382 2.8891721 0.045421839
-0.20619452 2.8881524 0.042142391
-0.21621704 2.8920593 0.041498184
0.083541572 2.8996203 0.039087296
0.062699385 2.9054337 0.039600372
0.056786578 2.8994651 0.039330721
0.044896781 2.8993948 0.039438963
0.02903492 2.9012806 0.039690971
0.019116916 2.9032018 0.039889097
-0.097710259 2.9015651 0.04090023
-0.11334644 2.9004681 0.042890549
-0.12398501 2.9013669 0.045418501
-0.13604975 2.9013329 0.043389797
-0.14734259 2.9012065 0.048484325
-0.15857047 2.9021773 0.045312643
-0.16890487 2.9041553 0.041711807
-0.18360946 2.9011045 0.042397738
-0.19239992 2.9010527 0.043191195
0.015107915 2.9110916 0.040356874
-0.10062299 2.9133875 0.042999268
-0.11241402 2.913311 0.043819904
-0.12339514 2.9122851 0.042677879
-0.1363323 2.9102573 0.041737556
-0.14781192 2.9130952 0.045568466
-0.15948713 2.9130039 0.047101021
-0.17183459 2.9130194 0.042936087
-0.18340877 2.9129193 0.045180559
-0.10080106 2.922312 0.042060137
-0.10972013 2.9252288 0.042303085
-0.12753871 2.9280975 0.042627335
-0.13347134 2.9280653 0.042681456
-0.14812177 2.9249861 0.044078827
-0.15667999 2.9248719 0.047007561
-0.18382737 2.9218638 0.042817593
-0.12731653 2.9398763 0.046121597
-0.13648936 2.9369466 0.043193817
-0.1518186 3.0288067 0.048345089
-0.211077 3.0284364 0.048882961
-0.21995547 3.0283823 0.048963547
-0.22001517 3.0402379 0.049610376
-0.22892225 3.0461061 0.050014257
0.33244339 2.3541384 -0.00012421608
-0.41962385 2.353658 0.0083594322
0.3328861 2.3619523 -0.0039842129
0.32632738 2.3691189 0.0021772385
-0.41345483 2.3628488 0.010229588
-0.42034203 2.3588774 0.0057961941
0.33269 2.3770123 -0.0017342567
0.32614985 2.3782616 0.0041043758
-0.41355306 2.3746169 0.010871887
0.33251089 2.3861699 0.0001938343
0.32331362 2.3896744 0.0033259392
0.31414822 2.3872936 0.0061368942
-0.41365081 2.38639 0.011514425
0.32090741 2.4001732 -0.0017881393
0.31129459 2.4016421 0.0055186749
-0.40784979 2.398176 0.012102365
-0.41538948 2.3936501 0.0047905445
0.30265284 2.4127214 0.0033495426
0.29040384 2.4164631 0.0079505444
-0.40172598 2.4102657 0.014130831
0.29709733 2.4206111 -0.00044989586
0.2870242 2.4228902 0.0016720295
0.27877524 2.4275293 0.0058085918
-0.38711125 2.4250052 0.014796495
-0.39689505 2.4211559 0.010397196
-0.40310323 2.4178948 0.0088505745
0.38611177 2.4331899 -0.00060248375
0.36794698 2.4365559 0.0026063919
0.27677393 2.4373193 0.0063610077
-0.37244463 2.4338634 0.015141249
-0.38253659 2.4326868 0.0094633102
-0.3948448 2.4322259 0.0074133873
0.36198664 2.4512339 0.003462553
0.27302811 2.444572 0.0039372444
0.2641108 2.4503934 0.0043385029
0.25499341 2.4508753 0.0073051453
-0.36372811 2.4485865 0.01586175
-0.37346771 2.4447865 0.011464596
-0.38165319 2.4434986 0.010044098
0.26316828 2.458065 0.003813982
0.2518968 2.4599504 0.0092561245
0.24292135 2.457211 0.010618687
-0.36115554 2.4571447 0.014876604
-0.36826777 2.4560413 0.0091745853
-0.38041431 2.4557385 0.0078451633
0.36158204 2.4753375 0.0076346397
0.25104335 2.470293 0.0074493885
0.24287021 2.4719131 0.011420488
-0.34919265 2.4721484 0.01700902
-0.35905528 2.4682631 0.011894703
0.24010947 2.4830148 0.0084831715
-0.34629354 2.4791408 0.01260519
0.36780661 2.4984641 0.0059821606
0.34934857 2.4992855 0.011909485
0.22919986 2.4956563 0.0090374947
-0.33580884 2.493588 0.017100096
-0.34522915 2.4942119 0.0096108913
0.22505805 2.5068316 0.012064219
-0.33501819 2.5043039 0.017200947
0.22535783 2.5176878 0.0069441795
0.21718636 2.5193071 0.011391163
-0.3147445 2.5188413 0.016375065
-0.32388437 2.5185902 0.01502037
-0.33300978 2.5153911 0.013504744
0.21333086 2.5325899 0.0092968941
0.20711529 2.5275466 0.014789581
-0.30302581 2.5306613 0.016909122
-0.31187049 2.527694 0.016830683
-0.32361057 2.525929 0.012087584
0.21481387 2.5443101 0.0092084408
0.20426518 2.5446646 0.012181282
0.19520728 2.539238 0.015538931
-0.30310673 2.539506 0.01739192
-0.31251043 2.5390496 0.014601231
-0.32193223 2.5385911 0.011810303
0.20324835 2.554455 0.012486696
-0.30295381 2.5515113 0.019472122
-0.31234962 2.5510688 0.01668191
-0.32149565 2.5508392 0.015328407
0.20422009 2.565223 0.012588501
0.18917149 2.5657177 0.017039061
-0.27916878 2.5635643 0.021332264
-0.28866038 2.5630362 0.01782465
-0.30023527 2.563211 0.019370556
-0.31029031 2.5622754 0.012991667
0.20134932 2.5795259 0.010065079
0.19218725 2.5772419 0.015497684
-0.28928083 2.5742135 0.021056414
-0.30085403 2.5746183 0.017143726
-0.30986911 2.5744989 0.016508341
0.21623902 2.5913503 0.0096178055
0.20323335 2.5934715 0.011758804
0.19275817 2.5907376 0.015514135
-0.29119503 2.5871124 0.02272892
-0.30026713 2.5852308 0.016051292
-0.31047803 2.5829854 0.014122248
0.19075054 2.60337 0.013367414
0.18328449 2.6092315 0.013757229
-0.27950636 2.6018863 0.023424149
-0.29132488 2.6018565 0.023533821
-0.29823565 2.5981719 0.017689228
0.2071896 2.6209142 0.011314392
0.1802057 2.6153872 0.016262293
-0.27760357 2.6100543 0.018142462
-0.28976047 2.6120048 0.020076036
-0.30051333 2.6128402 0.017558575
0.20418669 2.6268198 0.011664629
0.18921223 2.6298361 0.013397217
0.18298072 2.6276386 0.020472288
-0.27835917 2.6211145 0.020655632
-0.30276579 2.624562 0.017267227
0.20113349 2.6445928 0.012661934
0.19303387 2.6409836 0.016347408
0.18294072 2.6364977 0.020955563
-0.27824211 2.6379871 0.02081275
0.20280831 2.6530957 0.018818617
0.19131592 2.6522272 0.018879414
0.18287767 2.6512733 0.021761417
-0.25621513 2.6432586 0.025459766
-0.26619986 2.648845 0.023003817
-0.27712643 2.6503944 0.019385099
0.20390284 2.6626921 0.01647687
0.19090781 2.6647565 0.018615007
-0.25631306 2.6550686 0.02610445
-0.28077874 2.6634467 0.022509813
-0.28745067 2.663018 0.018267632
0.18896505 2.6744442 0.017258167
0.18093187 2.6785154 0.019458771
-0.26609203 2.6782894 0.023180485
-0.27794406 2.6782546 0.023290157
-0.28702682 2.6721756 0.021617174
0.20093922 2.6920836 0.015252352
0.1949736 2.6920433 0.015306473
0.17704117 2.6890693 0.016740322
0.17091611 2.6923504 0.021258593
-0.25681347 2.6874449 0.026446581
-0.26640201 2.6870513 0.022233725
-0.27847922 2.6839266 0.020750046
0.20091203 2.6980257 0.015576601
0.19186008 2.7011027 0.017970324
0.17991579 2.701077 0.018795013
0.16882525 2.7023647 0.02372694
-0.23303124 2.7024219 0.028466225
-0.26534763 2.6979933 0.023771524
-0.27966243 2.6977224 0.02103734
-0.28940383 2.6997445 0.022190571
0.18885922 2.7129052 0.017928362
0.17883676 2.7120235 0.020353079
0.16688573 2.71399 0.021524668
0.15892251 2.7130187 0.022498131
-0.24326909 2.7121048 0.027187586
-0.25481063 2.7122045 0.029204607
-0.26659715 2.7107577 0.023527622
-0.27857637 2.7106695 0.022922277
-0.28953466 2.7080452 0.027877569
0.1907707 2.7258215 0.019089937
0.17983666 2.7247748 0.019374132
0.16872755 2.7240853 0.02491188
0.15879658 2.7221074 0.025849104
-0.24336553 2.723943 0.0278337
-0.25459328 2.7227581 0.025496006
-0.26633373 2.7227657 0.026320696
-0.27855086 2.7225823 0.02428484
-0.29063746 2.719475 0.022802114
0.19175041 2.733717 0.019035339
0.17975605 2.7366996 0.020738125
-0.22188002 2.7377815 0.027434111
-0.24554786 2.73177 0.027329206
-0.25457498 2.7346509 0.026857376
-0.26809654 2.7353463 0.022979259
-0.27876663 2.7343962 0.024217129
-0.28801686 2.7312574 0.021992207
0.17964697 2.7486629 0.022818565
-0.25705603 2.7467086 0.031106234
-0.26664266 2.7464259 0.026899576
-0.27849513 2.746387 0.02700901
-0.29097492 2.7461362 0.023545027
-0.30002886 2.7490361 0.023074389
0.18871009 2.7603743 0.019089699
0.17956519 2.7605753 0.024182081
-0.2394135 2.7615702 0.031750202
-0.25712562 2.7555861 0.031590939
-0.26614404 2.7584758 0.031119347
-0.27834526 2.7583172 0.029085159
-0.29044005 2.758204 0.027765512
-0.29955989 2.7551305 0.0262568
0.18865411 2.7722785 0.019739151
0.17960554 2.7693777 0.022520781
0.16754967 2.7724397 0.026369095
0.15854478 2.7754407 0.028758526
-0.22765622 2.7734594 0.032287598
-0.26637253 2.7732477 0.031213284
-0.28945524 2.769104 0.028826237
0.20054999 2.7812893 0.020118237
0.19458237 2.7812481 0.020172119
0.16754392 2.78425 0.025585413
-0.25536373 2.7832243 0.033080578
-0.26691544 2.782017 0.028841972
-0.27925992 2.7818527 0.026094913
-0.29021552 2.7808008 0.025665045
0.1784851 2.7971189 0.024043322
0.1676046 2.7960045 0.022657871
0.15553659 2.7990501 0.027219057
0.14653498 2.7990909 0.030160666
-0.25347766 2.7950783 0.033709049
-0.2664113 2.7940152 0.03305912
-0.27873909 2.7938604 0.0303123
-0.28850031 2.7936468 0.025397539
0.18842882 2.8080494 0.023118258
0.18026522 2.8091438 0.028487921
0.16737667 2.808059 0.028311968
0.15559399 2.8078561 0.024130821
0.1465582 2.807909 0.027786493
-0.24272403 2.8089464 0.034363747
-0.25752532 2.8088844 0.034499645
-0.26661885 2.8058431 0.032992363
-0.28115007 2.8028653 0.034394026
-0.2883395 2.8055799 0.027473688
0.191433 2.8169584 0.022148132
0.17848837 2.8188605 0.022373915
0.1674442 2.8198545 0.025386572
0.15553448 2.8197572 0.024779797
0.14455342 2.8207188 0.026600599
-0.24320918 2.8147936 0.031832457
-0.25463015 2.8177843 0.034957409
-0.26729676 2.8176081 0.030071735
-0.27903756 2.8175809 0.030894518
-0.28865555 2.8144562 0.026533127
0.18837848 2.8318338 0.022987843
0.17939594 2.8317914 0.023783922
0.16736263 2.8317685 0.026750326
0.15539874 2.8317204 0.028287172
0.14344844 2.831672 0.029824495
0.1195815 2.8345315 0.032346249
0.11067171 2.8315091 0.032265425
-0.25767466 2.8296239 0.035631418
-0.26773706 2.8294427 0.028580189
0.1882118 2.8408163 0.026333332
0.1782994 2.8427229 0.025579214
0.16728181 2.8436763 0.028113604
0.15626147 2.8426642 0.031492472
0.14632702 2.8406365 0.032427073
0.12252747 2.8404868 0.03264308
0.11061019 2.8433838 0.032913208
-0.2577574 2.8414786 0.036278486
-0.2667461 2.8403535 0.029641151
0.1782085 2.8546431 0.027181149
0.16712415 2.8556001 0.031619549
0.15524077 2.8555202 0.03101325
-0.20453992 2.8565452 0.036598444
-0.24601778 2.8563538 0.036978722
-0.25556973 2.8533111 0.032620907
-0.26518634 2.856205 0.02858758
0.17626098 2.8675227 0.025047064
0.16718346 2.8674748 0.028698206
0.15523957 2.8674021 0.029520273
0.14320229 2.8703108 0.03407383
0.068805516 2.8698604 0.034749985
0.056901477 2.8697901 0.034858227
-0.016471781 2.8654146 0.035310745
-0.029447637 2.8663294 0.034055471
-0.038482182 2.8692474 0.032872438
-0.22832397 2.8682971 0.03746295
-0.24440438 2.8662412 0.03559947
-0.25519794 2.8661726 0.029988527
0.16618769 2.8783889 0.027637243
0.15521625 2.8793097 0.028742313
0.14325181 2.8792295 0.030277729
0.094556183 2.8779337 0.034947395
0.086630851 2.875905 0.034911633
0.062819853 2.8757644 0.035128117
0.056869306 2.8757291 0.035182238
0.041917667 2.8815911 0.034215212
0.03097412 2.8795536 0.03278017
-0.008596018 2.8753569 0.035778522
-0.016589455 2.877295 0.035007715
-0.029478021 2.8782129 0.035416842
-0.040407456 2.8791468 0.035333157
-0.050273947 2.8810697 0.036482334
-0.18097079 2.8803937 0.037676334
-0.22001162 2.8772442 0.03430438
-0.23219848 2.8771901 0.0322752
-0.24396756 2.8771303 0.033096313
-0.2557247 2.8770714 0.033917665
0.14317603 2.8911345 0.031640768
0.11931042 2.8909745 0.033283949
0.10739998 2.8909023 0.033392191
0.038929872 2.8904803 0.036155224
0.03097295 2.8894506 0.03522253
0.017100342 2.891345 0.036407948
0.007191509 2.8893087 0.036390305
-0.0058208629 2.8872733 0.033547401
-0.014616646 2.8872058 0.036480904
-0.032564752 2.8900852 0.035379648
-0.040535845 2.8910375 0.03503108
-0.053318121 2.8929331 0.037157536
-0.10411138 2.8926854 0.034768105
-0.10979299 2.8926303 0.037672997
-0.17323881 2.8903317 0.037193537
-0.18313095 2.890281 0.037284136
-0.21069747 2.8921132 0.038594961
-0.22110623 2.8881333 0.034670353
-0.23249137 2.8890913 0.031499386
-0.2439352 2.889015 0.034457445
-0.25534117 2.8879948 0.03117919
0.13119182 2.9029622 0.032398462
0.11925442 2.9028792 0.033220053
0.1073617 2.9028637 0.029049635
0.095417947 2.9027264 0.034149647
0.083484367 2.9056187 0.0351336
0.069811933 2.9019668 0.035348415
0.052728061 2.9034493 0.035780668
0.040772367 2.9034081 0.033987999
0.032814167 2.9053426 0.034168482
0.015071966 2.8992569 0.03685832
0.006069161 2.9021955 0.035676003
-0.0059064031 2.9021461 0.03435874
-0.017787576 2.9020727 0.035180092
-0.029983155 2.90207 0.030299664
-0.041826405 2.9019852 0.031833887
-0.053467236 2.9018648 0.036218643
-0.065582238 2.9018366 0.03347683
-0.076607071 2.9008031 0.032096863
-0.089106433 2.9016593 0.037256479
-0.10416622 2.901607 0.035254717
-0.10986633 2.9045086 0.038321018
-0.16327819 2.8982904 0.038485289
-0.17341647 2.9002388 0.036783934
-0.19908842 2.9010947 0.037548065
-0.20818421 2.9010673 0.036205053
-0.22036922 2.9010348 0.034177065
-0.22978902 2.8980527 0.030535221
-0.24762902 2.8979642 0.030698299
0.13421467 2.9119959 0.027867079
0.11924462 2.9148591 0.029591322
0.095358461 2.91469 0.031234503
0.083424062 2.9145923 0.032768726
0.068526819 2.9144883 0.033854961
0.054556977 2.913475 0.030600786
0.04161974 2.9143896 0.031010628
0.028709464 2.9133084 0.03178668
0.018887289 2.9151635 0.03578639
0.0058543906 2.9141526 0.032761812
-0.0052354336 2.9131632 0.029243946
-0.018075176 2.9140439 0.031553745
-0.028971612 2.9129739 0.032311678
-0.041077174 2.9129617 0.02957058
-0.053875588 2.9138448 0.031880379
-0.062976487 2.913835 0.029824495
-0.080674864 2.9166601 0.032999516
-0.089235626 2.9135561 0.037192822
-0.12775967 2.9162903 0.03913188
-0.1368238 2.91627 0.037788868
-0.19648185 2.9130263 0.036032677
-0.20865458 2.9130039 0.034005642
-0.21796319 2.910027 0.031076431
0.11915988 2.9267318 0.032380104
0.11019629 2.9296789 0.031911612
0.09232264 2.9236109 0.031749249
0.08335191 2.9265559 0.031280756
0.069605231 2.9259007 0.030375481
0.050495151 2.9263768 0.030866623
0.041535765 2.926326 0.030948162
0.028558724 2.9252903 0.029586792
0.017622687 2.9262035 0.030453444
0.005791977 2.9260685 0.033411741
-0.0031720847 2.9230549 0.032618284
-0.02719751 2.9229827 0.029986143
-0.054041781 2.9257953 0.031105757
-0.078742094 2.9266007 0.033523083
-0.089367889 2.9254644 0.037129164
-0.1012192 2.9283524 0.038112164
-0.11606976 2.9252961 0.038085222
-0.12403833 2.9242733 0.037628889
-0.13780978 2.9241769 0.038704634
-0.16378021 2.9250731 0.037095308
-0.17260817 2.9250121 0.037888527
-0.18477485 2.9279706 0.036023617
-0.19683725 2.9249661 0.034546375
-0.20910776 2.9219909 0.031645298
0.11613224 2.9386978 0.030920029
0.11016985 2.9387019 0.029549122
0.068347529 2.9354692 0.029766798
0.05041784 2.9353631 0.029929876
0.041486271 2.9382346 0.032311678
0.029584303 2.9351614 0.032969713
0.017606892 2.9380941 0.032528639
0.0085678175 2.9381039 0.030473471
-0.051155783 2.9347796 0.030854702
-0.089859493 2.9375017 0.032794714
-0.1017848 2.9374356 0.032903433
-0.11336761 2.9372618 0.036571026
-0.1241044 2.9361629 0.038277626
-0.14906937 2.9370706 0.036896706
-0.16104555 2.9370272 0.036293745
-0.17189837 2.9379427 0.03692174
-0.18833899 2.9340224 0.032105446
-0.19690621 2.9368722 0.035195827
-0.20620298 2.9339252 0.032268286
-0.090952732 2.948442 0.032925844
-0.10099173 2.9504056 0.032175779
-0.11687965 2.9463408 0.032103777
-0.12555429 2.9491751 0.035194397
-0.13760519 2.9461746 0.033717155
-0.15251499 2.9490733 0.034015656
-0.16159907 2.9460905 0.032511234
-0.17649722 2.9460082 0.032647133
-0.18543124 2.9459596 0.032728672
-0.19734254 2.9458919 0.032837152
-0.093078621 2.9584029 0.032537222
-0.15240464 2.9579537 0.035925865
-0.15868685 2.9580321 0.033134699
-0.15295631 2.9998066 0.035357714
-0.18275255 2.9996276 0.035628557
-0.22442907 2.9993782 0.036007404
0.097813219 3.0132339 0.033727884
0.085870557 3.0129821 0.036681175
-0.12317339 3.0059505 0.035412073
-0.15268186 3.008575 0.038687468
-0.16177875 3.0086071 0.037347794
-0.17359906 3.0084898 0.038166523
-0.18523344 3.008287 0.04040575
-0.1974979 3.0083945 0.03767252
-0.20929968 3.0082767 0.038490772
-0.22129196 3.0082474 0.037888527
-0.2334156 3.0112424 0.036738873
0.12764746 3.022362 0.033944607
0.11867271 3.0222609 0.034737349
0.10771354 3.0231776 0.035128355
0.09477409 3.0220256 0.036376715
0.082843944 3.0218101 0.038618088
-0.14115924 3.0237308 0.036550522
-0.1506539 3.0214279 0.040320396
-0.16133735 3.0202386 0.042259216
-0.17348638 3.0203102 0.040236712
-0.18519866 3.0201414 0.041764975
-0.19717717 3.0201149 0.041162729
-0.20876148 3.0198987 0.043401003
-0.22042552 3.0197279 0.044928789
-0.23249802 3.0197492 0.043616295
-0.24513802 3.0200086 0.038754225
-0.25703669 3.0229137 0.039024591
-0.26618165 3.0229542 0.037685633
0.13953391 3.034368 0.034487009
0.13050182 3.0340018 0.038833857
0.11955382 3.0328441 0.040301085
0.10667133 3.0310893 0.036045074
0.091737166 3.0311043 0.034759283
0.082788415 3.0308475 0.037683964
0.073808372 3.0309982 0.034922361
-0.11736429 3.0358071 0.036984682
-0.1260798 3.0326111 0.039033651
-0.13768798 3.0323296 0.041981936
-0.14852577 3.0332072 0.042845488
-0.16181839 3.0323939 0.039358377
-0.1737254 3.0323172 0.039466143
-0.18571723 3.0322957 0.038864374
-0.19733167 3.0320644 0.041102171
-0.20780611 3.0327604 0.044331074
-0.22060671 3.0346248 0.045028687
-0.23309624 3.0318923 0.040715694
-0.24486628 3.0317647 0.04153347
-0.25432369 3.0289867 0.037902832
0.14240806 3.0431161 0.037791252
0.13148876 3.0451877 0.036103964
0.1185507 3.043088 0.036587238
0.10560489 3.0450349 0.036339521
0.097633995 3.0460587 0.035518885
0.061788373 3.0428629 0.035682201
-0.12715 3.0435505 0.039402008
-0.13775247 3.0442362 0.042631626
-0.15003604 3.0414557 0.039027691
-0.16196066 3.0443583 0.039298058
-0.17270148 3.0431867 0.040762663
-0.18595982 3.0443189 0.038094759
-0.19777453 3.0441883 0.038912773
-0.20917815 3.0438349 0.042568684
-0.22045696 3.0463898 0.047095776
-0.23272383 3.0435698 0.044203281
-0.24251619 3.0469344 0.03876996
-0.25715017 3.046726 0.040323496
0.10653862 3.0548267 0.038767338
0.094596311 3.0545197 0.041717529
0.081646264 3.0567458 0.03815484
0.067692593 3.0563254 0.036360264
-0.12938547 3.0536225 0.03806901
-0.13724366 3.0554812 0.039196014
-0.16193518 3.0562184 0.040658236
-0.17485896 3.0551615 0.040483952
-0.18547204 3.0558832 0.043002129
-0.19495156 3.0561829 0.038825989
-0.21281198 3.056066 0.038987875
-0.22132492 3.0557728 0.041906595
-0.23299634 3.055577 0.043432951
-0.24509192 3.0556109 0.042121649
-0.25627562 3.054709 0.040274858
0.10646453 3.0699148 0.037449837
0.081584498 3.0686724 0.038805485
0.071619704 3.0686975 0.037949324
-0.11751483 3.0656254 0.038611412
-0.12604144 3.0681694 0.04311204
-0.13809937 3.0682192 0.041801214
-0.1503391 3.0713749 0.039233923
-0.1619927 3.0681274 0.041307688
-0.17389897 3.0680506 0.041415691
-0.18579993 3.067971 0.041523218
-0.19760436 3.0678282 0.042340279
-0.21062198 3.068821 0.041565418
-0.22158882 3.0677946 0.04113698
-0.24260202 3.064806 0.039744854
-0.27780867 3.0702653 0.043228388
0.1213247 3.0849812 0.037417173
0.10940731 3.0789485 0.037200689
0.079526022 3.0787718 0.037472248
-0.11757342 3.0775495 0.039261818
-0.12732628 3.079293 0.041351795
-0.13547847 3.0804145 0.039586782
-0.16228664 3.0772579 0.03966713
-0.1740317 3.0770469 0.041193485
-0.18611866 3.0770998 0.039882898
-0.19783521 3.0768876 0.041409016
-0.2106674 3.0787423 0.042106628
-0.22121829 3.0764618 0.044460535
0.34574121 2.357096 -0.012932777
0.33915433 2.3554344 -0.0072524548
-0.42825156 2.350915 -0.0031261444
0.34603518 2.3682718 -0.015181065
0.33746615 2.3645906 -0.0095920563
-0.42173862 2.3634424 0.00034976006
-0.42966217 2.3554916 -0.00857234
0.36950475 2.3809767 -0.011855125
0.34601256 2.3771596 -0.01469636
0.33957621 2.3751168 -0.010465384
-0.4218092 2.3723111 0.00083374977
0.36912569 2.390481 -0.0084788799
0.33724901 2.3908834 -0.01044035
-0.42283148 2.3862541 -0.0022025108
0.33401698 2.4007668 -0.013296604
0.32744268 2.4019473 -0.0074615479
-0.4174633 2.4006641 -0.0033707619
0.32161373 2.4104609 -0.0083696842
0.31262511 2.4134469 -0.0076463223
-0.41025537 2.4078193 0.0026602745
-0.41820711 2.4089479 -0.0057666302
0.38093758 2.4260707 -0.0066504478
0.31007826 2.4242744 -0.011789799
0.30214593 2.4252357 -0.0066673756
0.29165417 2.425292 -0.005851984
-0.40904957 2.4200442 0.00046086311
0.37532702 2.4372833 -0.0088407993
0.3634119 2.437176 -0.0087344646
0.29933238 2.436621 -0.0081613064
0.28863978 2.437103 -0.005179882
-0.40616173 2.4300456 -0.0033028126
0.36336964 2.4549475 -0.0077655315
0.28611591 2.4507647 -0.010120392
0.27733138 2.4499128 -0.004945755
-0.3868815 2.44631 0.0045382977
-0.39538941 2.4417889 0.0015175343
0.35672712 2.4559839 -0.0019373894
0.28608012 2.4626315 -0.0094733238
0.27811772 2.461575 -0.0094559193
0.26781702 2.4632869 -0.004983902
-0.3751055 2.4552069 0.004912138
-0.3880356 2.4572353 0.00038719177
0.36891896 2.4792264 -0.0036399364
0.35735366 2.4786043 -0.0064194202
0.34544769 2.4725685 -0.0066361427
0.26161695 2.4696875 -0.0017220974
0.25389358 2.475924 -0.0046396255
-0.37322384 2.4684989 0.00390625
-0.38207099 2.4662271 0.0012967587
0.35665795 2.4855468 -0.00032544136
0.25272581 2.487112 -0.0021157265
-0.35223535 2.4843273 0.0034296513
-0.36086661 2.4798543 0.0015544891
-0.3723923 2.479003 0.0014264584
0.25171229 2.4940164 -0.0017299652
0.24083337 2.4957459 -0.0024847984
0.23162389 2.502239 0.0017619133
-0.35033986 2.4932158 0.0038962364
-0.36241159 2.4921961 -0.0017545223
0.23991373 2.511224 -0.0035355091
0.2316826 2.5108812 0.00080513954
-0.34797078 2.5050704 0.0045201778
0.23981768 2.5212653 -0.0020356178
0.22968116 2.5236197 0.0010426044
0.21672443 2.5255716 0.0017466545
-0.33867404 2.5169389 0.0050795078
0.23803851 2.5305438 -0.0053191185
0.22879413 2.5341129 -0.0007557869
0.21959084 2.5347035 0.0036447048
-0.32945901 2.5313296 0.0029225349
-0.33593875 2.5279005 -5.7935715e-05
0.24096766 2.5484049 -0.004373312
0.22883776 2.5457659 -0.0015482903
0.21953511 2.549511 0.0044522285
-0.32898816 2.5406659 0.0062813759
-0.33607674 2.5427568 0.00075316429
0.24393725 2.5543756 -0.0040757656
0.22780401 2.5566456 -0.00094556808
0.21660283 2.5581717 0.0035247803
-0.31672928 2.5588932 0.010014057
-0.32748711 2.5541203 0.0077140331
-0.33615655 2.5516741 0.001240015
0.22893733 2.5661576 -0.0032923222
0.21688703 2.5662646 -0.0017457008
0.20766971 2.5727339 0.0029752254
-0.3173452 2.567379 0.0076277256
-0.3259882 2.565841 0.0038192272
-0.33626598 2.563566 0.0018892288
0.22570622 2.5843651 0.00058484077
0.21671194 2.5814176 0.0012226105
0.20756042 2.5818262 0.0048992634
-0.31691658 2.5796275 0.01114583
0.22567537 2.5932894 0.0010716915
0.21653542 2.5965519 0.0041899681
0.20743102 2.5968466 0.0071463585
-0.30514824 2.5915089 0.01168251
-0.31538779 2.5905666 0.004591465
0.21666279 2.6051154 0.0018010139
0.20462839 2.6052041 0.0033464432
0.19545153 2.6086264 0.0079011917
-0.30551356 2.6031911 0.010895491
-0.3156265 2.602375 0.0045237541
0.22575584 2.6167474 -0.00050497055
0.21633661 2.6175992 0.0074799061
0.20342076 2.6164849 0.0073029995
0.19246447 2.6174238 0.0076951981
-0.28756455 2.6182346 0.012973785
-0.30585277 2.611918 0.0099473
-0.31450966 2.613426 0.0063049793
0.2155742 2.6279209 0.0030543804
0.20445207 2.632122 0.0062425137
0.19536549 2.6294022 0.0090343952
-0.29074016 2.6270442 0.012770176
-0.29978132 2.6269398 0.012135983
-0.31517473 2.6265843 0.0094070435
0.21369663 2.6375194 0.00074076653
0.20546424 2.6399579 0.0057086945
-0.29109386 2.6387639 0.011984825
-0.3035017 2.6384251 0.0092289448
-0.31436077 2.637434 0.0095150471
0.21363688 2.6524282 0.0015540123
0.20719439 2.656219 0.01038456
-0.28193164 2.6538527 0.014862061
-0.29132506 2.6505711 0.011917114
-0.30373845 2.6502495 0.0091621876
-0.31317133 2.6469543 0.0062167645
0.22857991 2.6614883 0.0019071102
0.21650904 2.6645203 0.0036132336
0.20451942 2.6674144 0.0038838387
0.19520679 2.6680186 0.011140585
-0.29439786 2.6624508 0.012593508
-0.30407402 2.6590352 0.0082168579
0.21954733 2.6733553 0.0026388168
0.20351079 2.6753159 0.0038483143
0.19334647 2.6775742 0.0078730583
-0.29269323 2.6752532 0.012323856
-0.30330089 2.6748819 0.0085976124
0.20522079 2.6876686 0.0092630386
0.19130814 2.6874871 0.0084323883
0.18323298 2.6886296 0.010949612
-0.27925783 2.6894965 0.016779661
-0.2918784 2.686125 0.012433052
-0.30751729 2.6827321 0.0081136227
-0.31350368 2.6856959 0.0083315372
0.2041713 2.700563 0.0099756718
-0.27043858 2.7014079 0.017345905
-0.27638432 2.7013896 0.017400742
-0.29416633 2.6953902 0.01724124
-0.30315787 2.698874 0.011806965
-0.31333944 2.6977384 0.010413647
0.22539487 2.7092252 0.0045390129
0.21637958 2.7151351 0.0049459934
0.20325989 2.7132597 0.0078217983
0.19514829 2.7124186 0.010706902
0.18305579 2.7155209 0.013844252
-0.29134259 2.7132282 0.018187046
-0.30437121 2.7097409 0.011697292
0.22534713 2.7211745 0.0051906109
0.21524492 2.7232275 0.0073006153
0.20414019 2.7243047 0.0098426342
0.19497874 2.7215567 0.014060974
-0.29219481 2.7248254 0.014545441
-0.30433658 2.7217128 0.013062954
-0.31382823 2.7244694 0.010447979
0.23129299 2.733171 0.0057885647
0.20412731 2.7361917 0.0097770691
0.19191268 2.7393992 0.015062332
-0.26473188 2.7311521 0.018913269
-0.29335269 2.7347212 0.014620066
-0.30492949 2.7304654 0.010690928
0.20407137 2.7481306 0.010428429
0.19193649 2.7482538 0.014117479
-0.30551729 2.7445583 0.014319181
0.21920225 2.7569995 0.0072011948
0.2102063 2.7569377 0.0072824955
0.20112875 2.7599413 0.0089590549
0.19487247 2.760196 0.014740705
-0.30545267 2.7585244 0.016031265
0.21913671 2.7719545 0.0080170631
0.21099138 2.7710321 0.010897875
0.20299846 2.7729692 0.011078835
0.19481939 2.7721181 0.015391111
0.17979929 2.7750649 0.017120361
-0.29478809 2.7726898 0.021460295
-0.30199525 2.7693553 0.014210224
0.21907118 2.7869117 0.0088329315
0.21478036 2.7831316 0.014376163
0.20474833 2.7850921 0.015529156
0.19087732 2.7849202 0.013747215
0.17984462 2.7839203 0.015461445
-0.29487756 2.784591 0.022109985
-0.30331141 2.7824612 0.019218683
0.21904477 2.7928967 0.0091593266
0.21092725 2.7969041 0.011357069
0.20086455 2.7944028 0.0129807
0.18885209 2.7958374 0.013885736
0.18270522 2.7929699 0.018069029
-0.29520011 2.793467 0.021169424
-0.30477315 2.7933009 0.017682552
-0.31438944 2.7961259 0.014358997
0.20991573 2.8048518 0.011324167
0.20077358 2.8078709 0.014429331
0.19465496 2.807914 0.01734376
-0.29579562 2.8052928 0.018965244
-0.3047297 2.8052571 0.019047499
-0.31443676 2.8020988 0.014684916
0.2189106 2.8228319 0.010792255
0.21472123 2.8189085 0.014423847
0.20374951 2.8198254 0.014339209
0.19159582 2.8228168 0.0181849
0.18268007 2.8227255 0.016836643
-0.29290786 2.8172328 0.019588709
-0.30259109 2.8140984 0.015227318
0.21888417 2.828819 0.011118889
0.21273118 2.8288381 0.014032125
0.20273334 2.830766 0.014231443
0.19447695 2.8318191 0.02007556
-0.28071216 2.829263 0.022270203
-0.2902635 2.8291521 0.01878643
0.20060678 2.8437366 0.016385794
0.19255143 2.8447001 0.017941236
0.18245137 2.8466594 0.020997763
-0.27152631 2.8442364 0.025141001
-0.2810376 2.8411694 0.021495342
-0.29320392 2.8410952 0.020178556
0.20677111 2.8527012 0.012534618
0.19772115 2.8556459 0.013494015
0.18850815 2.8556328 0.018575191
0.18250585 2.8585768 0.018792391
-0.27055138 2.8521369 0.019853592
-0.28197765 2.853054 0.017156601
-0.29091305 2.8500237 0.017075539
0.19053358 2.8665938 0.017250776
0.1825183 2.8675425 0.017853498
-0.26020959 2.8621516 0.023156404
-0.26940498 2.8650877 0.021975756
-0.2788302 2.865036 0.019207239
0.1784538 2.8784831 0.018963814
0.17031315 2.8824031 0.023060322
-0.26889178 2.8770306 0.026190042
-0.28066245 2.8779805 0.021357298
0.17655367 2.8944657 0.015095472
0.16737369 2.8913634 0.020721912
0.155314 2.8912675 0.02368474
-0.25994322 2.8919737 0.027633905
-0.26956519 2.8889818 0.023279667
-0.2792525 2.891958 0.019251347
0.17652118 2.9004619 0.015422583
0.16733725 2.9033346 0.020661116
0.15536962 2.9032707 0.020056725
0.14333844 2.9031699 0.022305012
-0.081061669 2.9048305 0.026649952
-0.2342068 2.90204 0.027940035
-0.24427897 2.9020038 0.02708149
-0.25805813 2.9010134 0.021686554
-0.26734358 2.8980021 0.019468784
0.1614503 2.9123609 0.016213179
0.1524255 2.915303 0.016458511
0.14325958 2.9151118 0.023670673
0.13025677 2.9160037 0.025268793
0.10732543 2.9148693 0.02542305
0.05045715 2.9175184 0.02610302
0.032425225 2.9174731 0.023415804
-0.0093766749 2.9171729 0.026647568
-0.033302106 2.9170401 0.026865721
-0.045262419 2.9169722 0.026974678
-0.069267489 2.913877 0.025604725
-0.077198766 2.9128299 0.026098013
-0.22264352 2.9140658 0.02658391
-0.23360214 2.9130201 0.026391745
-0.24619138 2.9130356 0.02222991
0.14634097 2.9302621 0.017331123
0.14030376 2.9271765 0.019361019
0.13026559 2.9260538 0.022010565
0.10627386 2.9258382 0.02507925
0.096287251 2.9277937 0.02432847
0.062362015 2.9295387 0.026645899
0.056393445 2.9265165 0.026537418
0.032438062 2.9293644 0.026918411
-0.0065043494 2.9261851 0.025684595
-0.015581906 2.9261918 0.023629427
-0.027530916 2.9271009 0.024505138
-0.040737666 2.9266415 0.024034023
-0.066399015 2.9258671 0.025517464
-0.075191073 2.9227772 0.02757287
-0.20953935 2.9280202 0.029123783
-0.22174826 2.9250274 0.026934624
-0.23346347 2.9249265 0.02846694
-0.243168 2.9249973 0.023566961
-0.26753172 2.9279311 0.021101713
0.12828855 2.9361486 0.017822027
0.12222984 2.9390268 0.020890474
0.10421102 2.9387941 0.025329113
0.093423411 2.9394579 0.02118516
0.08224535 2.9377396 0.023099661
0.06826447 2.9415851 0.025344133
0.05432836 2.9394517 0.027261972
0.029296018 2.9413857 0.024748564
0.0024108887 2.9381979 0.026255369
-0.003702946 2.9382501 0.023461342
-0.027758025 2.9381485 0.022254944
-0.039715104 2.9380674 0.022839069
-0.055551566 2.9389031 0.025412321
-0.065736078 2.9389307 0.022655249
-0.078320391 2.9377143 0.027702808
-0.17678103 2.9341633 0.029150248
-0.18475646 2.9381006 0.029439926
-0.21099341 2.9380436 0.026829481
-0.22360057 2.9361229 0.022086143
-0.23285171 2.9359384 0.026920557
-0.2464301 2.9339902 0.022660494
0.13420151 2.954181 0.018749237
0.11320735 2.9480579 0.0186131
0.10119076 2.9479852 0.018722296
0.070160672 2.9497335 0.021012783
0.057418779 2.9511025 0.025583982
0.043064207 2.9498014 0.026219368
0.032202315 2.9504294 0.023787022
0.021370061 2.9498181 0.022428513
0.010158636 2.9513505 0.022617579
8.8758767e-05 2.9493597 0.020700932
-0.0099839047 2.9533312 0.020060778
-0.027968682 2.9472287 0.019897461
-0.03997498 2.9471605 0.020006895
-0.049929731 2.9490705 0.021156311
-0.063655861 2.949856 0.025134087
-0.077716105 2.9508066 0.024367094
-0.084771119 2.9497995 0.02342701
-0.10520678 2.9465024 0.029148817
-0.11337421 2.9505038 0.027540922
-0.13824448 2.9523396 0.02835083
-0.1475018 2.9494023 0.025423288
-0.16230285 2.9522567 0.027145624
-0.17324063 2.9502056 0.027136803
-0.18601227 2.9520729 0.028786182
-0.19794756 2.9520066 0.028894901
-0.21025625 2.9490547 0.025995493
-0.22280154 2.9461377 0.021672964
0.068063393 2.9627886 0.019841194
0.057285428 2.9620574 0.021615744
0.044179738 2.9623864 0.026466608
0.035056256 2.962533 0.021565437
-0.010016404 2.9593301 0.020388126
-0.067856602 2.960881 0.02387166
-0.078004889 2.9628956 0.02217412
-0.087774195 2.9617329 0.024819374
-0.10249976 2.9615366 0.027801514
-0.11388379 2.9606547 0.023341179
-0.12480702 2.9620833 0.026186228
-0.13844708 2.9613578 0.027416945
-0.14930525 2.9622574 0.028519869
-0.16312891 2.9621382 0.029594898
-0.17465234 2.9612699 0.024898767
-0.18659341 2.958209 0.024844408
-0.19647294 2.9616563 0.027409077
-0.21062365 2.9610968 0.024514675
0.074025109 2.9718227 0.0202775
0.047032647 2.974535 0.02353406
0.03797378 2.9716094 0.020605326
-0.064157031 2.9770103 0.021861553
-0.076008536 2.976851 0.023867369
-0.089098029 2.9731359 0.024739742
-0.099636368 2.9735429 0.027715683
-0.11195672 2.9736464 0.024031162
-0.12633681 2.9732907 0.030094147
-0.13836229 2.9732535 0.029491901
-0.15077186 2.9703848 0.025170565
-0.16273865 2.9703155 0.025279522
-0.1719017 2.9733243 0.024102688
-0.18247133 2.9747913 0.023568392
-0.19863629 2.9731042 0.025769472
-0.21029261 2.9729381 0.028011084
-0.22276744 2.9760232 0.024728775
-0.23749322 2.9758699 0.026286364
-0.24544263 2.9738288 0.026249886
-0.25585887 2.9758995 0.0236063
-0.052182235 2.9830801 0.022079706
-0.062198825 2.9850197 0.022279739
-0.076209076 2.9859364 0.022461653
-0.082192473 2.9829028 0.022352457
-0.10020866 2.9857957 0.022680044
-0.10920564 2.985744 0.022761822
-0.12498812 2.9848473 0.026858091
-0.13827565 2.9851305 0.031565666
-0.14770323 2.9852948 0.027381659
-0.1561718 2.9864666 0.023243427
-0.17188472 2.9867601 0.025548697
-0.18450719 2.9843774 0.029675961
-0.19757685 2.9840322 0.027306795
-0.20915851 2.9850111 0.02651763
-0.22240338 2.9848588 0.02806139
-0.23569795 2.9859014 0.025864601
-0.24638766 2.9847565 0.027568102
-0.25775155 2.9858208 0.025116444
-0.26787606 2.9878068 0.024368525
0.19986629 3.0023987 0.023613453
0.16397384 3.0023532 0.021094322
0.15192179 3.0001709 0.022991896
0.13984281 3.0019326 0.026056051
0.11591868 3.002069 0.021531582
0.10541221 2.9989259 0.022886276
0.091889441 3.0017631 0.024595499
0.082889453 3.0017097 0.024677515
-0.11514559 3.0006163 0.025055647
-0.12689924 2.9974258 0.027133226
-0.13841483 2.9971156 0.031506538
-0.14938775 2.9960666 0.031314611
-0.16255274 2.9970913 0.02959156
-0.17432439 2.9969392 0.031121492
-0.18719223 2.9958439 0.031658649
-0.19810376 2.9967582 0.032049179
-0.21022895 2.9967663 0.030736208
-0.22098652 2.9956393 0.031965733
-0.2336306 2.9978259 0.027446508
-0.24658084 2.9997444 0.027673244
-0.25827104 2.9965987 0.029038906
-0.27055639 2.9966483 0.027016878
-0.28262711 2.9996116 0.026578188
-0.29456544 2.9995396 0.026686668
-0.30376983 2.999567 0.025347471
0.19785535 3.0124276 0.023227453
0.18793115 3.0144901 0.02153039
0.16991639 3.0143864 0.021694422
0.16387868 3.0112636 0.023008347
0.15183558 3.0111048 0.024540186
0.13978487 3.0093572 0.027412891
0.1278512 3.0110033 0.024047136
0.11783703 3.0119009 0.024903774
0.10682404 3.0106578 0.027794123
0.093847975 3.0094671 0.0297544
0.081872694 3.0093963 0.029863358
0.070815347 3.0107584 0.02314353
0.046820272 3.0134804 0.025658607
0.037746266 3.0136077 0.022896528
-0.11498659 3.0094719 0.027677536
-0.12755758 3.0101397 0.031876087
-0.13870323 3.0091944 0.030026674
-0.14735803 3.0089624 0.032950163
-0.23381317 3.0054545 0.033573151
-0.24574038 3.0083663 0.033843994
-0.2581068 3.0084648 0.031111479
-0.27026328 3.008482 0.0297997
-0.28193939 3.008321 0.031327963
-0.29385194 3.0082514 0.031436443
-0.3060177 3.0082655 0.030124664
-0.31846908 3.0083663 0.027392864
-0.34555671 3.0052993 0.026053429
0.19975072 3.0233622 0.024757147
0.18777409 3.0233259 0.024392128
0.17284098 3.0233538 0.02286911
0.16085702 3.0233316 0.022267342
0.14980209 3.0221374 0.024209261
0.14173117 3.023896 0.027235508
0.13372645 3.0227823 0.028201818
0.10377003 3.019429 0.031155586
0.070801914 3.0224137 0.028774261
0.05458387 3.023073 0.026679277
0.043772072 3.0224485 0.026176214
0.035741806 3.0234625 0.025355577
-0.08529868 3.0247653 0.02609086
-0.098237075 3.022655 0.026573181
-0.11212368 3.0215094 0.027593136
-0.12659422 3.0210803 0.032701492
-0.13756558 3.0200343 0.032509804
-0.14740655 3.017921 0.033438921
-0.25769338 3.0172417 0.034440517
-0.27107483 3.0193379 0.031826258
-0.28175533 3.0201709 0.033399343
-0.29366088 3.0200934 0.033507347
-0.30634162 3.0203075 0.029356718
-0.31579936 3.0174508 0.026435614
-0.33172569 3.0213399 0.026797533
0.19968432 3.0353432 0.025410652
0.19047001 3.034925 0.030470133
0.17864007 3.0351219 0.027024031
0.16663329 3.034997 0.027843952
0.15462837 3.0348744 0.028663874
0.14557564 3.0346129 0.031589508
0.11563972 3.0374255 0.032024622
0.1066689 3.0374801 0.030684948
0.095701605 3.0355306 0.029254675
0.082694709 3.037658 0.026638746
0.066579536 3.0347478 0.032340765
0.052803673 3.0341218 0.031722784
0.040831976 3.0340466 0.031831503
0.031830885 3.0340493 0.031202793
0.02572336 3.0313277 0.026830196
-0.092215531 3.0326099 0.028010845
-0.10220193 3.0325489 0.028101444
-0.11198194 3.0333323 0.03037715
-0.25923038 3.0333481 0.032478333
-0.27074507 3.0325432 0.02897501
-0.28230307 3.0323126 0.031211853
-0.293468 3.0319264 0.035577774
-0.30613884 3.0321589 0.031428099
-0.31831864 3.032186 0.030117035
-0.32780319 3.0323348 0.027359962
0.2057544 3.0475824 0.02316618
0.19668299 3.0474212 0.024670124
0.18754146 3.0461106 0.028014898
0.1786993 3.0443182 0.024670362
0.16757876 3.0459945 0.028196573
0.15356623 3.0458429 0.029271841
0.14250091 3.0495329 0.032431602
0.12758578 3.0496752 0.029725313
0.11858086 3.0495074 0.031228304
0.10959013 3.0493426 0.032731295
0.091652572 3.0463629 0.031310558
0.082655728 3.0464802 0.029260635
0.068909287 3.0467126 0.032970905
0.053721182 3.0451789 0.031127453
0.043694656 3.0462492 0.029615164
0.034566607 3.0465841 0.024724007
-0.11219788 3.0454223 0.029373169
-0.12367471 3.0479233 0.034850597
-0.1505416 3.0477543 0.0350945
-0.17739543 3.0475829 0.035337925
-0.23697442 3.0412343 0.035552979
-0.24705663 3.0432317 0.034805298
-0.2580412 3.0412099 0.034322977
-0.27032799 3.0442789 0.032464981
-0.28377286 3.0454369 0.029562235
-0.29441336 3.0442398 0.031262398
-0.30779564 3.0433609 0.028723955
-0.31851143 3.0441949 0.030060053
-0.33084431 3.0442817 0.028039694
0.21770701 3.0566432 0.023547411
0.17857948 3.0561869 0.026745558
0.16958511 3.0561352 0.026827574
0.14565852 3.056237 0.024203777
0.13361084 3.062165 0.02464056
0.12961274 3.0580645 0.025406122
0.11854855 3.0586007 0.030297041
0.10654218 3.0613961 0.031989574
0.094565481 3.0613267 0.032098532
0.08558619 3.0611534 0.033601046
0.06763462 3.0610471 0.033764362
0.055578228 3.0584676 0.02802825
0.049536876 3.0556715 0.025078297
0.035548888 3.0594249 0.027317524
0.025473915 3.0615253 0.025624037
-0.10619018 3.0573506 0.030918121
-0.11496072 3.0571163 0.0331285
-0.12571487 3.0578642 0.035411596
-0.14164832 3.0597527 0.035664558
-0.15066564 3.0567698 0.034873486
-0.17148644 3.0595591 0.035935163
-0.20129296 3.0563819 0.03604269
-0.20744973 3.0564587 0.034677505
-0.26133913 3.0592144 0.033908129
-0.27026612 3.056169 0.033826113
-0.28254506 3.0562649 0.031806231
-0.29472193 3.0563068 0.03049612
-0.30716491 3.0569983 0.03326726
-0.31843835 3.056087 0.031420946
0.16056684 3.0712523 0.025595427
0.14854062 3.0711174 0.02641511
0.13952079 3.072021 0.027024984
0.12948927 3.0717907 0.029010057
0.11848447 3.0705602 0.030949354
0.094512589 3.0702968 0.032588005
0.0855112 3.0733604 0.031412601
0.064575717 3.0701196 0.032860279
0.055536743 3.071816 0.030183554
0.042051941 3.0702405 0.030224562
0.03155791 3.0701778 0.030319929
0.02547162 3.0703981 0.027534962
-0.10034285 3.069443 0.030570507
-0.11391706 3.069968 0.035008669
-0.15063059 3.0656631 0.036071301
-0.20729655 3.0652924 0.036584854
-0.23433542 3.0682247 0.035572052
-0.24717906 3.0690906 0.036215782
-0.25586215 3.0654752 0.031343222
-0.27043688 3.0681717 0.033768415
-0.28289169 3.0668588 0.036430597
-0.29452661 3.0681403 0.032566309
-0.30557114 3.0671344 0.031901836
-0.317314 3.0669713 0.03295517
-0.32769948 3.0681076 0.03073597
0.16954482 3.0803607 0.025293827
0.16343433 3.0830536 0.028352499
0.15265489 3.0824468 0.027850389
0.13646902 3.0830386 0.027178526
0.12942162 3.0816784 0.030500889
0.115407 3.0824432 0.032339573
0.10344066 3.0791795 0.034415483
0.094464757 3.0797963 0.027397394
0.083455034 3.08341 0.031028032
0.068666995 3.0829427 0.0309515
0.054327898 3.0814421 0.033288717
0.041527204 3.0810783 0.032247543
0.031468473 3.0792892 0.029390335
-0.10417686 3.0801647 0.033569813
-0.11406758 3.0820048 0.034714937
-0.12384879 3.0837462 0.036804914
-0.1419017 3.0807817 0.035386086
-0.15012351 3.0799599 0.033039808
-0.16043788 3.0841494 0.030510902
-0.17493504 3.0836849 0.03442812
-0.1868788 3.0836058 0.034536362
-0.19862628 3.0833874 0.036062241
-0.20737952 3.0831897 0.037561178
-0.22248578 3.0832264 0.036278248
-0.2350347 3.080569 0.031969786
-0.24441808 3.0777788 0.029051542
-0.27108487 3.0804563 0.030875921
-0.28177941 3.0792515 0.032338142
-0.29494512 3.0773001 0.030928612
0.15746742 3.0922875 0.02605772
0.1334455 3.0921512 0.02627635
0.12743795 3.0921156 0.026330948
0.11739379 3.093869 0.028424025
0.10337088 3.0978761 0.02782321
0.091367401 3.0976124 0.029824734
0.082385033 3.0945654 0.029743433
0.061446302 3.0911644 0.032609701
0.055411562 3.0942686 0.03140831
0.049403615 3.0913765 0.029880047
-0.10636715 3.0932491 0.032876492
-0.11420568 3.0920589 0.034312487
-0.12560037 3.0938101 0.032231808
-0.13904575 3.0928199 0.035301447
-0.15123883 3.0929482 0.033282518
-0.16053873 3.0931735 0.030528069
-0.17232543 3.0914583 0.031972647
-0.18541938 3.0934064 0.032773018
-0.19824153 3.091779 0.032234192
-0.21205154 3.0915945 0.033305883
-0.22293803 3.0924637 0.033931494
-0.23252648 3.0928288 0.029759884
0.10633875 3.1038375 0.028595924
0.093322225 3.1057107 0.02929616
0.082311824 3.1066191 0.029687643
-0.10966515 3.1024973 0.030557156
-0.11879285 3.1025867 0.029220581
-0.13963398 3.1052928 0.030991554
-0.15045011 3.1040721 0.032454252
-0.16041362 3.1020057 0.032435417
-0.18554485 3.1054261 0.03285861
-0.19649684 3.1049039 0.031506062
-0.22278249 3.104265 0.03600049
-0.2325666 3.1018081 0.030249596
-0.25050041 3.1016822 0.03041172
0.08525759 3.1158538 0.028022051
-0.13953552 3.1171081 0.033061981
-0.14851394 3.1170456 0.033143044
-0.17877918 3.1171541 0.030579567
-0.21467462 3.1139092 0.030740738
-0.2226589 3.1158478 0.030921698
-0.11291005 3.1265924 0.030473709
-0.11890268 3.1265509 0.03052783
-0.14855403 3.1260157 0.033632517
0.35235909 2.3587656 -0.018612862
0.35300452 2.366353 -0.023914099
-0.43143487 2.3627434 -0.015296221
0.34632289 2.3824511 -0.017265081
-0.43221438 2.3740072 -0.017529249
0.34662658 2.3907297 -0.019671202
-0.43163234 2.386564 -0.013995886
0.33851346 2.4037375 -0.017934084
-0.42576313 2.3984933 -0.013401031
0.33523089 2.4102252 -0.024209976
0.32641992 2.4157159 -0.01621604
-0.41892302 2.4142873 -0.0083229542
0.37680173 2.4290562 -0.020720482
0.3291977 2.4220939 -0.023506165
0.32274827 2.4258955 -0.018956661
0.31442878 2.4274936 -0.015460968
-0.41372943 2.4256091 -0.01060915
-0.42030871 2.4190552 -0.013758898
0.38313478 2.4404614 -0.023013115
0.37042755 2.4414737 -0.017129183
0.31906441 2.4361079 -0.021695614
0.31059662 2.4379735 -0.016756535
0.30433038 2.4414568 -0.013653517
-0.41115433 2.4342582 -0.011589289
0.38237643 2.4475296 -0.016911745
0.3079859 2.449019 -0.02041173
0.29858959 2.4497654 -0.016000748
0.29247397 2.4499922 -0.014503479
-0.39835793 2.447031 -0.006731987
-0.40593207 2.4456344 -0.013872862
0.352424 2.4651072 -0.015671492
0.29868707 2.4613993 -0.01679492
0.29243758 2.4618776 -0.013855457
0.27435482 2.4649687 -0.012089729
-0.39612299 2.4583886 -0.0089883804
0.36436361 2.4771163 -0.015129328
0.29305393 2.4694953 -0.020582199
0.28654253 2.473465 -0.014595509
0.27743798 2.4736478 -0.013072729
0.26642066 2.4746373 -0.012439251
-0.38807598 2.4714797 -0.0073990822
-0.39747405 2.4662657 -0.014255047
0.35800985 2.4894662 -0.01154232
0.28087759 2.4845653 -0.018218994
0.27181351 2.4846175 -0.017416954
0.2627565 2.484668 -0.016615391
0.25634748 2.482655 -0.010956049
-0.36592954 2.4857483 -0.0049271584
-0.37548444 2.4852254 -0.007720232
-0.38502467 2.4817255 -0.010675192
0.34604254 2.4953058 -0.011111259
0.27095106 2.4951739 -0.018974304
0.26261106 2.4968371 -0.014523506
0.25329557 2.5004678 -0.0099563599
-0.36395159 2.4969168 -0.0086185932
-0.37553969 2.4911778 -0.0073952675
0.26891863 2.5051079 -0.018413782
0.25967953 2.5084927 -0.015287876
0.25240859 2.5080748 -0.011436462
0.24429446 2.5063438 -0.0095512867
-0.35422587 2.5095634 -0.003739357
-0.36312699 2.5047853 -0.0086729527
0.2568588 2.5169551 -0.017654419
0.24856675 2.5214825 -0.013523579
-0.34297624 2.5210297 -0.0060744286
-0.35090047 2.5170436 -0.0062174797
-0.35904646 2.517097 -0.011846542
0.24672881 2.5309634 -0.015844345
0.23839015 2.5356114 -0.010754824
-0.34007478 2.5299697 -0.0056147575
-0.34761941 2.5305068 -0.0083687305
0.24849293 2.5433555 -0.01233077
0.23818144 2.5420032 -0.0075502396
-0.34319338 2.5448656 -0.0047733784
-0.34828258 2.5400202 -0.010698318
0.24857733 2.5570078 -0.0134902
0.23822293 2.5566881 -0.0081772804
0.2321291 2.5598233 -0.0065219402
-0.34091848 2.5550804 -0.00233531
-0.35010916 2.553174 -0.0085370541
0.24465218 2.570657 -0.014612436
0.23846063 2.5680156 -0.011843681
0.22908926 2.5717154 -0.0058450699
0.21710107 2.5716243 -0.0057370663
-0.33091325 2.5691321 -0.0007121563
-0.33743778 2.5687256 -0.003526926
-0.34392399 2.562345 -0.0066680908
0.24461037 2.582623 -0.013959885
0.23642111 2.5789535 -0.011228323
0.22905579 2.580657 -0.0053575039
-0.32737458 2.5768263 -0.0022289753
-0.33536467 2.5771036 -0.007371664
-0.34462726 2.5768888 -0.008723259
0.24757582 2.5946159 -0.013334036
0.23643357 2.5927761 -0.011426449
0.23202166 2.5896218 -0.0048966408
-0.32540783 2.589808 -0.0010638237
-0.33561492 2.5889599 -0.0074365139
-0.34653339 2.5879712 -0.0071499348
0.24739698 2.6038561 -0.010688066
0.23532808 2.6038525 -0.0098609924
0.22605681 2.6043062 -0.0054671764
-0.32578695 2.6015601 -0.0018470287
-0.33450407 2.602066 -0.005543232
0.24731466 2.6129165 -0.0094797611
0.23628429 2.6168201 -0.0091631413
0.23193246 2.6134753 -0.003595829
-0.31940991 2.6168261 0.0017793179
-0.32769445 2.6126089 -0.00027561188
-0.33660445 2.6140163 -0.0048720837
0.2351523 2.6279411 -0.0071189404
0.22398859 2.6291189 -0.0045711994
-0.32627141 2.6252756 -0.0019772053
0.2443969 2.6425138 -0.01069355
