# .PCD v0.7 - Point Cloud Data file format
VERSION 0.7
FIELDS x y z
SIZE 4 4 4
TYPE F F F
COUNT 1 1 1
WIDTH 1483
HEIGHT 1
VIEWPOINT 0 0 0 1 0 0 0
POINTS 1483
DATA ascii
0.0066715614 -0.29423618 1.9001184
0.018913217 -0.29361781 1.8990301
0.031398039 -0.294058 1.89862
0.04536435 -0.29493225 1.8981349
0.064404801 -0.29694 1.90781
0.078270853 -0.296074 1.90333
0.09144488 -0.296085 1.9019299
0.10194215 -0.29431656 1.9016299
0.11272286 -0.29363254 1.90009
0.12500723 -0.29478443 1.901911
0.1376155 -0.29295 1.902705
0.1483525 -0.29357523 1.9026126
0.1623784 -0.29513758 1.904546
0.172978 -0.29217899 1.9071699
0.18661766 -0.29369184 1.9052601
0.19826475 -0.294292 1.9052451
0.209668 -0.29390189 1.9012809
0.22093844 -0.2942017 1.9036422
0.232289 -0.29667801 1.9052041
0.24922401 -0.29307601 1.90789
0.25915167 -0.29351267 1.9064833
0.26809064 -0.292483 1.9063467
0.28169066 -0.29953533 1.9062066
0.305832 -0.29657301 1.90794
-0.041617166 -0.28217968 1.9038534
-0.028554626 -0.280844 1.9006701
-0.016805528 -0.28212842 1.9055585
-0.0069582909 -0.282868 1.9048632
0.0039644511 -0.28204501 1.9008808
0.018179642 -0.28139976 1.8989571
0.031689603 -0.28238159 1.8994761
0.043382779 -0.28268901 1.898105
0.052692451 -0.28217298 1.8971601
0.064966172 -0.28092 1.9013075
0.07709334 -0.28274539 1.9016609
0.090964146 -0.28063077 1.9012849
0.10224856 -0.28156114 1.90165
0.11449999 -0.28223813 1.9009043
0.12615468 -0.28294849 1.8992332
0.1378855 -0.28241649 1.89765
0.14961261 -0.28198463 1.8976462
0.16208537 -0.28252211 1.9010139
0.17184032 -0.279688 1.9044067
0.18544312 -0.28210366 1.9010024
0.19801727 -0.28177431 1.9009398
0.21082175 -0.280963 1.9050112
0.22287075 -0.284053 1.906225
0.23554501 -0.28357226 1.9052975
0.241494 -0.28035751 1.9049649
-0.0280362 -0.27129999 1.9072833
-0.0173386 -0.26863998 1.9065479
-0.0050728633 -0.26915097 1.9061619
0.0064173164 -0.27060255 1.9036053
0.017978951 -0.26980126 1.901945
0.028683718 -0.26980144 1.8998581
0.043632139 -0.26972899 1.8973318
0.054885544 -0.26978922 1.89976
0.065640911 -0.26875943 1.9017839
0.078382254 -0.27116325 1.903071
0.0897903 -0.27015021 1.9017222
0.10117395 -0.2713289 1.9024745
0.11433116 -0.27089447 1.9033525
0.12632857 -0.26902914 1.9021728
0.13619575 -0.26955751 1.899955
0.1460945 -0.26832449 1.8995099
0.16167043 -0.2693077 1.9012629
0.17450276 -0.27057976 1.9022701
0.18557689 -0.26954001 1.9012465
0.19726373 -0.26998809 1.9043474
0.20914981 -0.269541 1.906284
0.236001 -0.27288601 1.90539
0.24490476 -0.27129674 1.906785
0.25729331 -0.26800832 1.90481
0.27082798 -0.26585168 1.9046732
-0.018857598 -0.25611699 1.9062033
-0.0071765459 -0.25851887 1.906275
0.0053318273 -0.25761393 1.9042218
0.018303249 -0.25749475 1.9024224
0.029234845 -0.25678116 1.8992473
0.041985571 -0.25691688 1.8982807
0.054421049 -0.25824851 1.900445
0.06598825 -0.26028159 1.9013101
0.079075195 -0.2576696 1.9044371
0.090074211 -0.25791621 1.9028764
0.10171322 -0.25811765 1.9041845
0.11426758 -0.25827342 1.9044833
0.12642787 -0.25640088 1.904335
0.13795301 -0.2577171 1.901329
0.15260051 -0.25784102 1.9001335
0.16164859 -0.25758007 1.9029666
0.17368151 -0.25806707 1.9034575
0.18435572 -0.258811 1.9027084
0.19824556 -0.26036629 1.9036757
0.211155 -0.25955302 1.9063824
0.22211525 -0.25752598 1.90572
0.23390602 -0.2583445 1.90491
0.24565899 -0.25833941 1.905336
0.25741068 -0.25697532 1.9047832
0.26932251 -0.25634998 1.904915
0.27940667 -0.25579169 1.9068533
-0.017376799 -0.24531451 1.907635
-0.0070487671 -0.24862666 1.9063435
0.004524075 -0.24510415 1.9029815
0.0174204 -0.2461783 1.9016081
0.029473009 -0.24526873 1.9008416
0.041186802 -0.24473312 1.8986999
0.051855695 -0.24555679 1.899976
0.064977005 -0.24443099 1.89819
0.07973823 -0.24518414 1.903385
0.090337075 -0.24585609 1.9030274
0.10227362 -0.24615857 1.9047157
0.11378888 -0.24652413 1.9049435
0.12611051 -0.24752067 1.9048567
0.13841875 -0.24657515 1.9032964
0.14868529 -0.24713556 1.9027684
0.16164146 -0.24557471 1.902998
0.17331059 -0.24547015 1.9018928
0.18437399 -0.24329233 1.9041634
0.19567899 -0.240793 1.9048899
0.2086505 -0.2453045 1.9030074
0.221053 -0.2464066 1.9015801
0.23374476 -0.24616225 1.9030801
0.24550085 -0.24494319 1.9049267
0.25810963 -0.24503 1.9047921
0.26841 -0.246805 1.90453
0.27786601 -0.24795499 1.90794
0.0058061457 -0.23439966 1.9024612
0.017071357 -0.23358487 1.9034901
0.029218171 -0.234128 1.9033229
0.04110606 -0.23418082 1.9023362
0.053373612 -0.23437013 1.9030634
0.066233799 -0.23465151 1.9018874
0.078823276 -0.23459625 1.90491
0.090886936 -0.23532414 1.9052743
0.102846 -0.23307118 1.906266
0.11031075 -0.23468874 1.9068149
0.130831 -0.23558301 1.90676
0.13842075 -0.23542649 1.9033775
0.14969185 -0.23433314 1.9003441
0.1639578 -0.2350456 1.9026359
0.17431951 -0.23493464 1.9022983
0.1843954 -0.235533 1.905834
0.19850428 -0.23533872 1.9056913
0.21110499 -0.23374134 1.9023733
0.22445349 -0.23321366 1.9015751
0.23408985 -0.23443185 1.9052067
0.24492334 -0.23394199 1.90672
0.26096702 -0.23668599 1.9042699
0.26970249 -0.232923 1.90616
0.27604401 -0.228873 1.9071701
0.0073490813 -0.2217474 1.9057823
0.018295428 -0.221977 1.90211
0.028672952 -0.22205682 1.9025245
0.041619316 -0.22174175 1.9052168
0.055287302 -0.22206263 1.9029218
0.067352064 -0.22183201 1.900202
0.077944569 -0.22236699 1.9022332
0.091177732 -0.22101033 1.9060067
0.103992 -0.22432101 1.90688
0.111662 -0.223811 1.9062901
0.139285 -0.22030525 1.90449
0.15013374 -0.22194237 1.901945
0.16354674 -0.22356826 1.8993975
0.1746612 -0.222278 1.901816
0.18590815 -0.22153533 1.9064032
0.19810675 -0.22296551 1.9050825
0.21151841 -0.22343221 1.902264
0.22151475 -0.21992001 1.9038999
0.23360068 -0.22290367 1.9024134
0.24695115 -0.22255443 1.9047543
0.25710076 -0.22111975 1.9065125
0.26912367 -0.22168399 1.9046267
0.27926001 -0.219606 1.90576
-0.0052018301 -0.20891699 1.9064
0.0052184048 -0.20845084 1.9021567
0.01823765 -0.20863727 1.9038525
0.030333817 -0.20915602 1.9054418
0.03815693 -0.20846033 1.9060034
0.052148897 -0.21100724 1.9048876
0.066412523 -0.21004198 1.9053724
0.076128699 -0.211769 1.90423
0.089919537 -0.21100833 1.9063534
0.120131 -0.21454699 1.90713
0.1380485 -0.20608899 1.9051249
0.15137328 -0.20920202 1.8998512
0.16358499 -0.21063614 1.8996099
0.17166968 -0.21099967 1.9030033
0.184916 -0.210752 1.90793
0.1967175 -0.20786226 1.9050674
0.210932 -0.21090966 1.9004101
0.22265349 -0.21130675 1.9011151
0.2340178 -0.2111146 1.90264
0.24599683 -0.20974332 1.9027482
0.25888973 -0.21045926 1.9052124
0.27023032 -0.21085133 1.9057966
0.278218 -0.21498799 1.9078701
0.0104444 -0.20111001 1.9064
0.019126035 -0.19928201 1.90555
0.028665498 -0.19830275 1.9044875
0.0365173 -0.1985005 1.9064
0.0530199 -0.20025134 1.9063834
0.062342901 -0.202869 1.90598
0.083851099 -0.20134 1.9066
0.13889568 -0.19737966 1.9047033
0.14846951 -0.19827774 1.905125
0.16132934 -0.19808115 1.90343
0.171992 -0.200978 1.9064
0.1997925 -0.198552 1.9060426
0.21160066 -0.19502133 1.9030199
0.222845 -0.2000936 1.8998301
0.2340426 -0.1977714 1.9040362
0.24507524 -0.19725575 1.9069101
0.25756574 -0.19977474 1.9071575
0.0052298601 -0.180282 1.9064
0.140769 -0.18801001 1.9064
0.1483805 -0.18774749 1.9038525
0.16152366 -0.19050168 1.90555
0.1868045 -0.18614775 1.9070649
0.19730401 -0.18397868 1.9057599
0.2108015 -0.18614376 1.90451
0.22159222 -0.1860476 1.9067539
0.2351948 -0.1874924 1.9063919
0.244458 -0.187663 1.90786
0.25519249 -0.18874401 1.9068251
0.13548601 -0.17228499 1.9051249
0.145998 -0.169782 1.9064
0.179299 -0.170651 1.90777
0.189687 -0.17154101 1.90432
0.19984967 -0.172611 1.9032768
0.21023284 -0.17536099 1.9027151
0.21924326 -0.17257449 1.90573
0.23097567 -0.17474599 1.9060267
0.14860749 -0.16457251 1.9064
0.188619 -0.166657 1.90636
0.19753149 -0.16509899 1.9048049
0.229408 -0.16657101 1.90703
0.2484085 -0.016012 1.9052351
0.26036 -0.015763501 1.9034851
0.27138132 -0.0162469 1.9046932
0.27969334 -0.016216332 1.90527
0.29499599 -0.017507821 1.905048
0.30361748 -0.01441145 1.9069
0.23286967 -0.0025044882 1.9074932
0.24596767 -0.0065840571 1.9050432
0.25604424 -0.0052489801 1.9048876
0.26783723 -0.0065220399 1.9039481
0.28112477 -0.0064047994 1.9030026
0.293973 -0.0068546366 1.9004234
0.30596736 -0.0060717803 1.9039317
0.31447566 -0.0053878762 1.9053134
0.23783401 0.00312976 1.906
0.24439675 0.0067705326 1.905345
0.25631425 0.0044410517 1.9048899
0.269732 0.0056937179 1.904542
0.28091833 0.007695274 1.9021767
0.29430598 0.0056707882 1.9011101
0.30580622 0.0052742115 1.9012899
0.31801283 0.0065645282 1.9052434
0.330203 0.0087928995 1.90747
0.25053251 0.01782155 1.903185
0.25803432 0.018750532 1.9026867
0.2688545 0.018172434 1.9030067
0.28194824 0.017509975 1.9037225
0.29121765 0.016827134 1.9025568
0.3062185 0.017938137 1.9016513
0.31830859 0.016956259 1.904192
0.32912901 0.017291427 1.9070325
0.33723399 0.0120603 1.90742
0.24935549 0.02782 1.90639
0.25839901 0.030852851 1.9047849
0.26988339 0.02797468 1.9048859
0.28097332 0.031814169 1.9003134
0.29563579 0.029372379 1.8979021
0.3057625 0.029765466 1.9014999
0.31962085 0.029300557 1.9046471
0.32876551 0.030385248 1.9068201
0.25862101 0.038123 1.90605
0.27079499 0.040404867 1.9056066
0.28358752 0.040103249 1.9016249
0.292952 0.041457124 1.901816
0.30631733 0.042385612 1.9024367
0.31550258 0.0413348 1.9055141
0.32895398 0.042189348 1.9074299
0.28155249 0.050207503 1.9057801
0.29419649 0.049837902 1.90295
0.30724376 0.054140672 1.9039274
0.31582201 0.05700475 1.90576
0.276021 0.063571401 1.90734
0.310155 0.063073099 1.906165
0.316035 0.064126998 1.90703
-0.26411799 -0.684717 1.91781
-0.25851586 -0.67674977 1.9136
-0.25605899 -0.66481501 1.91906
-0.25007319 -0.66535437 1.915554
-0.25475299 -0.65477735 1.9181533
-0.24768099 -0.6524958 1.91432
-0.24248919 -0.64337564 1.9163738
-0.2376115 -0.64224225 1.91114
0.45140502 -0.63897169 1.9129151
0.45723733 -0.64256638 1.9156699
-0.24252033 -0.63462734 1.9177834
-0.23639917 -0.63123035 1.9134635
0.44299477 -0.62876248 1.9118299
0.44709113 -0.63115412 1.9151529
-0.23130083 -0.61948162 1.9158534
-0.22650775 -0.61472398 1.9123875
0.44089341 -0.61729574 1.9127519
0.4467175 -0.62011099 1.916055
-0.22220075 -0.60631448 1.9137586
0.43667772 -0.6049403 1.9140244
-0.2234 -0.59351999 1.9126467
-0.090431802 -0.59367102 1.91135
0.43156701 -0.59711051 1.91089
0.43592682 -0.59462488 1.9157085
-0.21856821 -0.58300221 1.9139881
-0.21392167 -0.57908332 1.9153601
-0.085171349 -0.58482754 1.9084599
-0.083945401 -0.57697201 1.90885
0.42575964 -0.58290714 1.9135025
0.43590599 -0.58718503 1.91468
-0.22832 -0.56897199 1.91993
-0.22361501 -0.56909901 1.91901
-0.2105335 -0.56959569 1.9158089
-0.18520574 -0.56902999 1.9172375
-0.1749104 -0.56934899 1.91303
-0.16133399 -0.56504536 1.9123501
-0.155843 -0.56921202 1.90895
-0.091780052 -0.57120848 1.91663
-0.077336751 -0.569372 1.91167
0.4050495 -0.56634545 1.9102249
0.4159736 -0.57065153 1.9129471
0.423316 -0.57338798 1.917462
-0.20699525 -0.55997479 1.9121826
-0.20190799 -0.55439252 1.9148099
-0.1828015 -0.55922854 1.91915
-0.17410366 -0.55838341 1.91915
-0.16156717 -0.55803233 1.9148999
-0.15077551 -0.55669105 1.9102249
-0.07880605 -0.56139505 1.91084
0.40223521 -0.55793059 1.9115
0.412168 -0.56118101 1.91915
0.42490238 -0.55894524 1.9147037
-0.19906627 -0.54564309 1.9140224
-0.182818 -0.55144501 1.91915
-0.17487049 -0.55109704 1.9178751
-0.16042425 -0.54946578 1.9165999
-0.14890221 -0.54547083 1.9125201
-0.14030901 -0.54344201 1.90895
-0.088454053 -0.5461095 1.9112401
-0.078496382 -0.54451948 1.9119049
-0.07106445 -0.54778898 1.9102349
0.3947435 -0.54568446 1.9102249
0.40393719 -0.54565263 1.91309
0.41460127 -0.54564923 1.9148176
0.4211545 -0.54692101 1.9096451
-0.20013998 -0.53388309 1.913175
-0.182704 -0.53004599 1.9086601
-0.1730835 -0.53093451 1.9101801
-0.16503599 -0.53127199 1.90962
-0.14597833 -0.53476602 1.9148999
-0.077608943 -0.53335702 1.9128319
-0.061333667 -0.53453469 1.9113699
-0.048938252 -0.53083253 1.90836
-0.0054019 -0.53177798 1.90845
0.37570235 -0.53097302 1.9097999
0.38597172 -0.53313649 1.9115
0.40118167 -0.53456599 1.9142623
0.41372252 -0.53303474 1.9144341
-0.1965005 -0.52213079 1.9128466
-0.18596561 -0.52293903 1.913258
-0.17452456 -0.52130491 1.9115132
-0.1650835 -0.52488148 1.9108901
-0.14632699 -0.52298152 1.91915
-0.13808866 -0.52407128 1.9136251
-0.12744924 -0.52058423 1.9102249
-0.1169725 -0.51767397 1.90895
-0.07667537 -0.52291447 1.9160951
-0.061628051 -0.521981 1.91395
-0.050305597 -0.52108002 1.91137
-0.040010251 -0.52036899 1.90958
-0.029581359 -0.5236578 1.909672
-0.0182306 -0.52094251 1.90965
-0.006103199 -0.52207398 1.9109334
0.2672115 -0.52153099 1.91114
0.28263801 -0.52359951 1.9177999
0.367275 -0.52209359 1.9125201
0.37835735 -0.52303082 1.91609
0.38729298 -0.52394199 1.9157499
0.40312389 -0.52069634 1.9125237
0.40961051 -0.52341598 1.916595
-0.18766651 -0.51175451 1.9170949
-0.17526326 -0.51268703 1.9186199
-0.1642348 -0.50950217 1.9137169
-0.15199101 -0.50737047 1.909335
-0.13590249 -0.51002401 1.91915
-0.1275505 -0.51059175 1.9115
-0.11558221 -0.51009482 1.9115
-0.066424198 -0.51103663 1.91539
-0.051256202 -0.50866401 1.91451
-0.042019028 -0.509453 1.9110101
-0.0291287 -0.50955999 1.9091001
-0.014925834 -0.50817001 1.9085335
-0.0064268894 -0.51038396 1.9122801
0.0021867601 -0.50626701 1.91002
0.25439 -0.50992048 1.9082299
0.26878667 -0.50913697 1.9144634
0.28164801 -0.515674 1.91808
0.33243999 -0.50676697 1.90895
0.35610673 -0.50978148 1.9108624
0.3676146 -0.50903338 1.9140499
0.37810752 -0.51140976 1.9172375
0.39507401 -0.507837 1.91118
0.39912799 -0.50940466 1.9153879
-0.172259 -0.50145698 1.91747
-0.16122256 -0.49785689 1.9162685
-0.15100549 -0.49477518 1.913205
-0.13838033 -0.49503851 1.9148034
-0.12774451 -0.49832568 1.91405
-0.1161915 -0.49810031 1.9097999
-0.042318899 -0.498227 1.91575
-0.028506801 -0.499448 1.910455
-0.0163939 -0.49807766 1.9094
-0.0083290562 -0.49995935 1.9112667
0.0043607699 -0.49844101 1.90955
0.25724468 -0.497848 1.9127201
0.32211101 -0.49646801 1.90895
0.330742 -0.49816099 1.90895
0.3412208 -0.49809581 1.9115
0.35302475 -0.4976669 1.9115
0.36361003 -0.49875799 1.9183
0.37684101 -0.49921799 1.90827
0.3921178 -0.49771398 1.9118659
0.39713666 -0.49993798 1.9151901
-0.15974149 -0.48651749 1.918435
-0.1502635 -0.48636365 1.9159017
-0.1367878 -0.48516521 1.9141821
-0.12735043 -0.48585477 1.9145201
-0.11450725 -0.48443276 1.910225
-0.098884448 -0.489622 1.9102249
-0.069221802 -0.48260301 1.91353
-0.040697102 -0.487845 1.91626
-0.0307709 -0.48733899 1.9147266
-0.01787534 -0.487809 1.91313
-0.005393615 -0.48503175 1.9120625
0.0065347799 -0.490623 1.90909
0.244462 -0.48384053 1.9101651
0.25976801 -0.48563403 1.916925
0.32050401 -0.48575038 1.9115
0.33050951 -0.48696399 1.9123498
0.34067923 -0.48632804 1.9140499
0.35206652 -0.48538277 1.9166
0.36500752 -0.484092 1.9130726
0.37849396 -0.4841775 1.91513
0.3881304 -0.48837203 1.9122299
-0.15100199 -0.47858226 1.9165299
-0.13876216 -0.47493434 1.9169483
-0.125102 -0.47630349 1.9149508
-0.11380749 -0.47363839 1.913305
-0.088441297 -0.47122601 1.90895
-0.0715691 -0.47277999 1.9173501
-0.024515601 -0.477483 1.9181499
-0.0125318 -0.47164401 1.9156899
-0.0113722 -0.476432 1.91374
0.0053097066 -0.471861 1.9090734
0.2441155 -0.473611 1.9113951
0.26133251 -0.47571552 1.91988
0.31778568 -0.47438502 1.9136251
0.33150899 -0.47539198 1.9178749
0.34127831 -0.4765397 1.91915
0.35521251 -0.4747625 1.914
0.36616588 -0.47356588 1.9136724
0.37822014 -0.47487313 1.9145415
-0.1263752 -0.45956939 1.9162439
-0.11546613 -0.46200916 1.9131571
-0.10203069 -0.46214572 1.91216
-0.0940146 -0.46079022 1.9125199
-0.017814334 -0.46188417 1.9186867
-0.001167291 -0.46345848 1.914145
0.0089585651 -0.46298552 1.91219
0.23329851 -0.4626675 1.9101601
0.24694367 -0.46144101 1.9159001
0.30518061 -0.46016622 1.9125201
0.31807798 -0.46327442 1.9151429
0.331756 -0.46791101 1.91915
0.356868 -0.46495098 1.909755
0.36499611 -0.46200404 1.9156634
0.3802045 -0.46361977 1.91636
-0.1325675 -0.45072901 1.916085
-0.12645438 -0.44872397 1.916816
-0.11438601 -0.44865298 1.9150343
-0.10245578 -0.44994822 1.9129779
-0.091871485 -0.44988647 1.9123312
-0.083269998 -0.445382 1.90895
-0.029619768 -0.44805968 1.9187132
-0.019088201 -0.448888 1.91873
0.0064039505 -0.450984 1.9167967
0.0239575 -0.449343 1.90828
0.22346532 -0.44944766 1.9101567
0.23421501 -0.45016003 1.9129333
0.24583133 -0.44716033 1.91458
0.28598601 -0.444893 1.90895
0.29450819 -0.44936022 1.9104799
0.30504599 -0.44875973 1.9146875
0.31524161 -0.4507266 1.9166
0.33250052 -0.44720799 1.90827
0.34252548 -0.4474875 1.9102499
0.35510302 -0.44720799 1.909235
0.36324164 -0.44987637 1.9152524
-0.120052 -0.440137 1.91918
-0.111915 -0.43834573 1.9148425
-0.10193233 -0.43965536 1.9127055
-0.09062954 -0.43797466 1.9121566
-0.081826225 -0.4371905 1.9092125
-0.0257084 -0.4385795 1.91942
-0.0188576 -0.44128099 1.91996
0.0086527197 -0.44065899 1.9167399
0.23763901 -0.43675101 1.91091
0.25065899 -0.43520999 1.9160399
0.25322801 -0.44080201 1.91759
0.27044451 -0.437186 1.90895
0.28600401 -0.43972099 1.90895
0.294092 -0.43754449 1.9108624
0.30517602 -0.44112551 1.9153249
0.330037 -0.44283301 1.90872
0.3452158 -0.4376556 1.910128
0.35473493 -0.43936801 1.9150056
0.36335599 -0.43568701 1.91942
-0.125094 -0.42632949 1.919275
-0.11129 -0.430722 1.91713
-0.1020029 -0.42759499 1.9144061
-0.090177193 -0.42588153 1.9139221
-0.079036243 -0.4249225 1.9111375
-0.065298095 -0.42274851 1.908095
-0.030135401 -0.42025 1.9196399
-0.019907 -0.42536101 1.9185551
-0.0064353799 -0.420459 1.91995
0.003294155 -0.42276251 1.9179
0.234429 -0.42599201 1.90953
0.2506305 -0.4274995 1.9171751
0.286311 -0.42457232 1.9106499
0.29501799 -0.4258683 1.9165999
0.30576 -0.420636 1.910705
0.31612965 -0.42371967 1.9108367
0.33002526 -0.4228715 1.9099851
0.34136212 -0.42532396 1.9143038
0.35177362 -0.4273096 1.9172739
0.36072701 -0.42867398 1.917345
-0.11169725 -0.41076526 1.91496
-0.10239273 -0.41536427 1.91445
-0.090110026 -0.415344 1.9150575
-0.077601336 -0.4130455 1.9142655
-0.067875236 -0.41411433 1.9113301
-0.036606502 -0.414859 1.91918
-0.028590068 -0.41115534 1.9175967
-0.014795 -0.4117015 1.91483
-0.0075712334 -0.41310599 1.9176201
0.0097664753 -0.41182399 1.91417
0.23122099 -0.41525948 1.90815
0.24421601 -0.41358933 1.91329
0.27329701 -0.41416448 1.9102249
0.28104031 -0.41447303 1.91575
0.29544401 -0.416033 1.91915
0.30889067 -0.41297635 1.9100767
0.31931999 -0.41336432 1.9118932
0.32968974 -0.414285 1.91239
0.34257683 -0.41397771 1.9156958
-0.11313025 -0.40265578 1.914755
-0.10316992 -0.40257883 1.9141148
-0.088443398 -0.40314636 1.9172167
-0.077465877 -0.40254927 1.9131045
-0.064384416 -0.40071216 1.9112428
-0.056408349 -0.39939049 1.908275
-0.030696167 -0.40084401 1.9189968
-0.016707366 -0.40227804 1.9159232
-0.0035545395 -0.40285635 1.9183434
0.01622735 -0.400951 1.910445
0.22926801 -0.3996425 1.90869
0.2444845 -0.40078199 1.91548
0.26967633 -0.40134597 1.9148999
0.27721801 -0.40568399 1.91915
0.30804199 -0.40217701 1.90894
0.31708121 -0.40262824 1.9109681
0.32942271 -0.40355816 1.9117585
0.34159669 -0.40273014 1.9135915
0.349042 -0.399618 1.9174401
-0.124232 -0.3941845 1.919275
-0.112664 -0.394113 1.91887
-0.101068 -0.38932404 1.9180466
-0.090490423 -0.39022177 1.9179541
-0.078430459 -0.38925824 1.91361
-0.065713964 -0.39031088 1.9117243
-0.056931268 -0.38961801 1.9093733
-0.031379201 -0.39373299 1.91855
-0.0175463 -0.393727 1.9170799
0.0125675 -0.39390701 1.9150701
0.227639 -0.38662499 1.90914
0.2336615 -0.38947201 1.91071
0.241596 -0.392627 1.91401
0.25648567 -0.38986537 1.9157233
0.26908049 -0.39087325 1.9166
0.28323877 -0.38952896 1.91686
0.29195699 -0.39272201 1.90846
0.30329001 -0.38478351 1.914835
0.31889027 -0.38806278 1.911935
0.32904062 -0.38926688 1.9146876
0.34201714 -0.39091757 1.9158885
0.35343423 -0.38983077 1.9173561
-0.099477001 -0.38022 1.9192899
-0.089998521 -0.37900928 1.9162457
-0.077831745 -0.37808567 1.9140489
-0.066302292 -0.37877768 1.9117759
-0.056267548 -0.37739748 1.9106901
-0.047779899 -0.37344301 1.90848
-0.022484301 -0.383562 1.91978
0.0122285 -0.38389301 1.91728
0.22633401 -0.37620601 1.9095
0.2390025 -0.3793855 1.9136
0.2464855 -0.37518948 1.914855
0.25852361 -0.37715459 1.9115
0.2677305 -0.37774676 1.9159625
0.28044248 -0.3740145 1.90817
0.29805899 -0.384 1.91053
0.30785766 -0.37800452 1.9147049
0.32177299 -0.3785485 1.9160399
0.329353 -0.37936068 1.9152066
0.3403295 -0.37760451 1.9167234
0.35191151 -0.37944949 1.9171275
-0.131024 -0.36671001 1.91988
-0.084516302 -0.36586899 1.91799
-0.075662903 -0.36709714 1.9172976
-0.065010369 -0.36551771 1.9145508
-0.055158664 -0.36503717 1.9144882
-0.045168336 -0.36736402 1.9101833
0.16259 -0.36124799 1.90879
0.171867 -0.36139101 1.91057
0.19759101 -0.36246035 1.9085833
0.21074766 -0.36234701 1.9090199
0.222523 -0.36857301 1.910705
0.22944251 -0.36378652 1.9143
0.241458 -0.36163801 1.91857
0.25913835 -0.36640897 1.9131999
0.26655999 -0.36357 1.9166
0.29157799 -0.36511201 1.90825
0.31833836 -0.36709699 1.9110984
0.32924825 -0.36715901 1.9144312
0.34417236 -0.36706316 1.9158832
0.35008699 -0.36378101 1.91781
-0.110714 -0.35681799 1.91741
-0.097710744 -0.35451099 1.918975
-0.088515826 -0.35436875 1.9190525
-0.077074744 -0.35495901 1.9174141
-0.06551604 -0.3534168 1.915664
-0.05456328 -0.35414258 1.9122645
-0.047874201 -0.359602 1.91092
0.165337 -0.354076 1.9126199
0.175087 -0.35371047 1.9112775
0.187673 -0.35315526 1.9089875
0.19922701 -0.35553399 1.9088
0.20945035 -0.35197234 1.9093766
0.22351201 -0.353973 1.9126433
0.24528551 -0.35418797 1.914535
0.25833425 -0.35519502 1.9134126
0.26676053 -0.3560015 1.9178751
0.29622751 -0.356105 1.908565
0.30697414 -0.35234302 1.9117115
0.31879386 -0.35390776 1.9156336
0.33128998 -0.35506541 1.9181839
0.34011701 -0.35223103 1.91833
-0.110245 -0.347857 1.9197299
-0.10182425 -0.34165224 1.9182751
-0.090424515 -0.34179598 1.9175472
-0.079059653 -0.34193084 1.9155083
-0.06636443 -0.34172922 1.9162532
-0.055853184 -0.34232485 1.9127232
-0.046849601 -0.34021401 1.90833
0.16311467 -0.34122133 1.9124767
0.17549266 -0.34112301 1.9136432
0.186848 -0.34291649 1.90979
0.2145365 -0.34249401 1.9108
0.22620399 -0.34536701 1.91406
0.2344625 -0.33841598 1.91334
0.25008467 -0.34158099 1.9097999
0.2579394 -0.34127682 1.9140499
0.27045166 -0.34132767 1.90912
0.28297099 -0.33734199 1.91017
0.2937482 -0.34252161 1.9109399
0.30541483 -0.34145436 1.9108483
0.31744042 -0.34201378 1.9135201
0.32513851 -0.34238049 1.917125
0.34060651 -0.3451215 1.9159701
0.34817451 -0.341254 1.91845
-0.088489704 -0.32991499 1.9175634
-0.080119878 -0.33015749 1.9152299
-0.06583143 -0.33035985 1.9146287
-0.053966332 -0.32983115 1.9122499
-0.043213934 -0.33091769 1.9105517
-0.032093473 -0.32804975 1.909165
0.0389538 -0.33196101 1.91018
0.048768699 -0.327106 1.90924
0.15104049 -0.32829151 1.909925
0.162126 -0.32850498 1.9135151
0.174181 -0.32881898 1.917955
0.18537799 -0.32910755 1.9141642
0.19505051 -0.330093 1.91238
0.20851232 -0.32969299 1.9119101
0.219016 -0.32656768 1.91324
0.23533033 -0.32974568 1.9110099
0.24615167 -0.32863614 1.9104916
0.2577306 -0.32903239 1.9147122
0.27322 -0.32745999 1.9092
0.28334552 -0.3294135 1.91153
0.29294825 -0.32757425 1.9117401
0.30786917 -0.32722831 1.912495
0.31838998 -0.33108744 1.9155486
0.32997322 -0.32992625 1.9162076
0.33855 -0.32730201 1.91906
-0.087629519 -0.3214615 1.9189675
-0.077717334 -0.32171765 1.9172267
-0.065730765 -0.31877124 1.9174401
-0.054317176 -0.31733322 1.9148113
-0.041616317 -0.31713653 1.9149133
-0.030784342 -0.3180972 1.9102541
-0.014651 -0.31553102 1.9091849
0.048434898 -0.31711999 1.91146
0.15160349 -0.31830299 1.91207
0.166706 -0.321412 1.91913
0.179729 -0.32078499 1.9173
0.18547276 -0.31783527 1.916015
0.19862534 -0.31665668 1.9166565
0.21194534 -0.31669632 1.9121367
0.221765 -0.31804699 1.91049
0.235906 -0.31600499 1.9096233
0.24870987 -0.31794256 1.9111871
0.25876167 -0.31885934 1.9146366
0.27348366 -0.31836334 1.91093
0.28055599 -0.31905386 1.9134382
0.29412627 -0.31733951 1.912745
0.30667433 -0.31839651 1.9158334
0.32233649 -0.31958351 1.9186599
0.3332915 -0.32030499 1.9198251
-0.12814701 -0.311167 1.91953
-0.117764 -0.30148399 1.91944
-0.079880297 -0.30948001 1.91942
-0.066537298 -0.30511513 1.9176701
-0.0553573 -0.3060368 1.9144341
-0.043275502 -0.30473617 1.9130917
-0.031092048 -0.30677801 1.9117035
-0.017847465 -0.31092733 1.9100699
0.049382102 -0.30701232 1.91254
0.060915701 -0.30715001 1.90903
0.140481 -0.30309549 1.9107699
0.15429632 -0.30596134 1.9166867
0.16477035 -0.30599535 1.91967
0.175639 -0.31067848 1.918565
0.18589699 -0.31021601 1.91761
0.19690765 -0.30826131 1.9187466
0.20788451 -0.30527401 1.9101851
0.221735 -0.30829799 1.9091401
0.23723251 -0.3079375 1.9102249
0.24636449 -0.30627403 1.9145933
0.25719199 -0.30744117 1.91241
0.26488 -0.308236 1.90864
0.28141433 -0.30947867 1.9111834
0.29458249 -0.30484951 1.9116
0.30540672 -0.30615029 1.9160831
0.31810901 -0.30569899 1.9197149
0.324117 -0.30828401 1.91924
-0.0805621 -0.29047051 1.91847
-0.066216394 -0.29625019 1.918884
-0.052952014 -0.29407227 1.9158908
-0.040788338 -0.29392919 1.91347
-0.030899402 -0.29371601 1.913065
-0.020555625 -0.29353198 1.9102075
0.05008895 -0.29439899 1.91432
0.063283399 -0.29200801 1.90979
0.13828701 -0.29286098 1.9102299
0.189412 -0.289386 1.908
0.197024 -0.29330334 1.9125633
0.224117 -0.28958699 1.90895
0.23311439 -0.2926558 1.911834
0.24505161 -0.2932412 1.9140381
0.253261 -0.298242 1.9094
0.26912439 -0.29288298 1.911582
0.28225899 -0.29399234 1.9114132
0.29391974 -0.29393101 1.9113274
0.30728656 -0.29303017 1.9159687
0.3177295 -0.29859048 1.91831
0.32553899 -0.29924199 1.9197
-0.109096 -0.277787 1.9198
-0.096543498 -0.28415349 1.919005
-0.08866863 -0.28214559 1.9170059
-0.077273674 -0.27970326 1.9188526
-0.066565201 -0.28035 1.9184433
-0.054019313 -0.2823835 1.9154013
-0.041645218 -0.28068581 1.9138217
-0.028962201 -0.28285766 1.9135418
-0.01953146 -0.28110999 1.910568
-0.0066800569 -0.27964732 1.9085966
0.047458701 -0.28697699 1.91813
0.049608499 -0.27928448 1.917655
0.062957197 -0.28200468 1.9120134
0.074586697 -0.277282 1.9092799
0.130273 -0.28054699 1.91151
0.14067349 -0.28298599 1.914175
0.189622 -0.28225851 1.909265
0.19753499 -0.28369734 1.91023
0.22189333 -0.28060916 1.9114766
0.23278925 -0.28281099 1.9159626
0.24429715 -0.28247628 1.9140472
0.25998101 -0.28210673 1.9092275
0.2708708 -0.2817786 1.91215
0.28222367 -0.28171149 1.91302
0.29279318 -0.28267282 1.9150766
0.30520642 -0.2828432 1.9172281
0.31808701 -0.28132424 1.918385
-0.109687 -0.273146 1.91997
-0.087426901 -0.26943898 1.91793
-0.081095397 -0.2687355 1.9145174
-0.067730829 -0.27051118 1.915205
-0.054601673 -0.27138722 1.9168351
-0.041776113 -0.26970571 1.9156563
-0.030290911 -0.26946256 1.9116756
-0.018577233 -0.27355102 1.9086733
-0.0064285863 -0.27353001 1.9104567
0.0050603799 -0.27110302 1.90966
0.052154653 -0.26905501 1.917305
0.065901697 -0.27099034 1.9114133
0.075768054 -0.26973552 1.9096551
0.085064299 -0.26767901 1.9084899
0.118047 -0.270493 1.90817
0.128157 -0.26893726 1.91312
0.196551 -0.27558199 1.91061
0.211134 -0.2721405 1.90907
0.22149956 -0.27026466 1.9119568
0.23332334 -0.27041516 1.9149617
0.243301 -0.27118775 1.9164
0.25615752 -0.26999152 1.9090149
0.26910138 -0.2729798 1.910458
0.28257361 -0.26957899 1.9132459
0.29530561 -0.2688182 1.914726
0.3047365 -0.26975927 1.9168924
0.31701949 -0.27311248 1.918
-0.089405723 -0.25770742 1.917762
-0.079924487 -0.25694981 1.9156436
-0.067640737 -0.25793469 1.9164066
-0.053904802 -0.25847158 1.9165821
-0.040944837 -0.25768581 1.9153059
-0.029514246 -0.25842512 1.913258
-0.018193811 -0.25886846 1.9100279
-0.0104393 -0.25380099 1.9115
0.00558668 -0.261152 1.90833
0.0125726 -0.260831 1.90872
0.058146134 -0.25695601 1.9119967
0.0670669 -0.25678951 1.9091074
0.075701155 -0.26028123 1.9085801
0.109588 -0.25339901 1.90895
0.12806876 -0.26078522 1.91108
0.17937499 -0.25486699 1.91128
0.18769066 -0.25490999 1.9118266
0.19812199 -0.25556558 1.910742
0.21187119 -0.2586312 1.9104799
0.22255926 -0.25691724 1.9172375
0.2329305 -0.25680751 1.9166
0.240924 -0.2569595 1.9178751
0.26088899 -0.26091999 1.90943
0.27006802 -0.25847134 1.90938
0.28432783 -0.25836429 1.9124528
0.29482225 -0.25846776 1.9165225
0.30283001 -0.26057801 1.91934
-0.1115425 -0.2450265 1.9193649
-0.1054265 -0.246967 1.9190149
-0.090369768 -0.24835999 1.9183601
-0.076510325 -0.24501224 1.9169776
-0.068880901 -0.24804449 1.916165
-0.05209095 -0.2461895 1.9194601
-0.041384615 -0.24522212 1.9162762
-0.028070999 -0.24658801 1.9152464
-0.019413633 -0.24581634 1.9101549
-0.0073609632 -0.24473667 1.9103518
0.057809502 -0.24711999 1.9123474
0.064303383 -0.24483001 1.911232
0.074027553 -0.24613699 1.9094379
0.088734403 -0.24301 1.90895
0.10184079 -0.24316049 1.9102249
0.11174834 -0.24383266 1.9096466
0.12616 -0.24354684 1.91125
0.13850249 -0.24143299 1.908695
0.148773 -0.242309 1.90907
0.177798 -0.24455699 1.90803
0.186397 -0.24705915 1.9095849
0.1980795 -0.24628726 1.9090912
0.21142051 -0.24567175 1.9108624
0.22191374 -0.24572925 1.9115
0.23295575 -0.2463605 1.9165999
0.26070201 -0.246674 1.909265
0.26933476 -0.24634025 1.9105101
0.28397149 -0.24654326 1.9119925
0.29270718 -0.24541651 1.9165567
0.30427 -0.25141299 1.9198101
-0.098332703 -0.230068 1.91967
-0.07710737 -0.23227733 1.91618
-0.063664831 -0.235541 1.9177966
-0.05311 -0.233298 1.91817
-0.039947279 -0.2343266 1.91697
-0.028516321 -0.23460236 1.915561
-0.017807018 -0.23449782 1.912783
-0.0069928481 -0.23350979 1.9129127
0.0030889851 -0.2345805 1.91022
0.059228498 -0.23590501 1.91724
0.06637685 -0.23281676 1.9133849
0.083558001 -0.231957 1.9098099
0.092873424 -0.23313376 1.9134126
0.10205303 -0.23581374 1.91405
0.11408399 -0.2341702 1.9098289
0.12601662 -0.2343986 1.9125702
0.13735034 -0.23194067 1.9102865
0.148072 -0.23500501 1.9112201
0.16073361 -0.23239359 1.9091961
0.17330401 -0.22946399 1.90861
0.18462601 -0.23324698 1.9095399
0.1958755 -0.23275951 1.9115
0.21158525 -0.23541075 1.9121375
0.22185566 -0.23527801 1.9183
0.2359135 -0.230996 1.91915
0.24323367 -0.23107065 1.9158667
0.25724602 -0.23210999 1.909155
0.26995632 -0.23491299 1.9100367
0.28164086 -0.234557 1.9117258
0.29104036 -0.2339572 1.916078
-0.10291073 -0.22257778 1.917046
-0.089403659 -0.22243281 1.9155039
-0.077753454 -0.2208765 1.9126126
-0.065785334 -0.22256134 1.9140301
-0.054453518 -0.22164233 1.9126034
-0.042097002 -0.22222149 1.9150225
-0.029944301 -0.22267325 1.9158649
-0.018314969 -0.22252819 1.915477
-0.0066767395 -0.2209768 1.9128309
0.0033274677 -0.22370388 1.9100971
0.019167226 -0.2189545 1.9121525
0.046997398 -0.222211 1.90895
0.056218501 -0.22348332 1.9133034
0.065591387 -0.22343829 1.9119242
0.077656873 -0.2215149 1.9109879
0.090038449 -0.22133133 1.9116677
0.10248001 -0.22177386 1.9119238
0.11383864 -0.22212435 1.9117398
0.12520939 -0.22262938 1.9117353
0.13715672 -0.22194099 1.9121271
0.1480865 -0.22382849 1.9117124
0.16150899 -0.22126751 1.9113876
0.17507225 -0.22253877 1.9117424
0.18712799 -0.22159334 1.9096099
0.19922462 -0.22174887 1.9121375
0.21167816 -0.22245498 1.912775
0.22169299 -0.21939433 1.9165999
0.26197699 -0.22307201 1.90957
0.27086449 -0.223977 1.910295
0.2824274 -0.22154482 1.91294
0.29474875 -0.22208355 1.9160445
0.30463701 -0.21870901 1.9198
-0.099241301 -0.21574751 1.91757
-0.088643298 -0.21246125 1.9160576
-0.076672293 -0.209049 1.9144886
-0.066588163 -0.21122234 1.9114933
-0.053968024 -0.20961624 1.9128925
-0.042895351 -0.20895499 1.914665
-0.031744935 -0.21067132 1.9159781
-0.018359177 -0.20860955 1.9156812
-0.0067275241 -0.21055275 1.9123762
0.00613464 -0.20986751 1.910535
0.017501049 -0.20917901 1.9120275
0.02876934 -0.2096822 1.9102001
0.042916998 -0.21036026 1.9097625
0.054887421 -0.209391 1.9108624
0.066044882 -0.21012513 1.9151262
0.079507649 -0.20946921 1.9150723
0.090950124 -0.20954937 1.9131126
0.10222337 -0.20995958 1.9120138
0.1136461 -0.2096841 1.9145491
0.125892 -0.21005003 1.912444
0.138685 -0.21023399 1.9128
0.15005651 -0.210511 1.9142251
0.1622882 -0.21012039 1.913578
0.17461999 -0.20972621 1.9119942
0.18434083 -0.20974982 1.9107851
0.19872299 -0.209508 1.9134125
0.2102768 -0.2100776 1.9140499
0.2199665 -0.20982149 1.9166
0.26875699 -0.20795266 1.9102665
0.27984473 -0.20966129 1.9141686
0.29357949 -0.2102505 1.9164774
0.30198467 -0.20889634 1.9179767
-0.073325098 -0.19954801 1.9180599
-0.063962802 -0.19800329 1.9166043
-0.053203415 -0.19758201 1.9135016
-0.041947901 -0.19913974 1.913825
-0.02784415 -0.19847 1.91888
-0.01677328 -0.19814 1.9166081
-0.0072047841 -0.19848922 1.9140377
0.0050271302 -0.19816662 1.9129136
0.016734982 -0.19771983 1.9132251
0.030761799 -0.19840848 1.9135201
0.043158159 -0.19824888 1.9118226
0.054454833 -0.19835329 1.9119942
0.065898746 -0.19807298 1.9137117
0.078044884 -0.1984787 1.9147952
0.091115683 -0.19854565 1.9143599
0.10108891 -0.199238 1.9155688
0.11455533 -0.19976467 1.9178967
0.12524334 -0.19861323 1.9150677
0.13900433 -0.19872034 1.9155866
0.15197434 -0.19824301 1.9148368
0.16002825 -0.199122 1.915565
0.1750645 -0.1974275 1.9113065
0.18601751 -0.19891115 1.9113599
0.19594601 -0.19891679 1.9150341
0.20920332 -0.19907117 1.9136251
0.22153533 -0.19830935 1.9148999
0.24733199 -0.19748068 1.9124999
0.261242 -0.19675949 1.9091151
0.26792601 -0.19773775 1.9121976
0.28237602 -0.19773212 1.9149164
0.29446849 -0.19970974 1.9161074
0.30609968 -0.19742216 1.9160134
0.32083368 -0.19535367 1.91863
-0.077771924 -0.18799226 1.9186599
-0.066714339 -0.18605383 1.9159451
-0.054983649 -0.18440799 1.9126201
-0.043020226 -0.18705675 1.912945
-0.030738199 -0.18613935 1.9141368
-0.017998036 -0.18754463 1.9150388
-0.0061977976 -0.18703011 1.9152789
0.0051503479 -0.1863054 1.910581
0.018131899 -0.18608262 1.9134046
0.030080006 -0.18602216 1.9134659
0.041716408 -0.18606235 1.9126168
0.053478677 -0.18703264 1.9135011
0.065878198 -0.18595931 1.9134901
0.078070752 -0.18717679 1.9158571
0.088760883 -0.18749741 1.9149851
0.10215314 -0.18638563 1.9159598
0.11365601 -0.18709022 1.9182801
0.12588611 -0.1862601 1.915646
0.13658884 -0.18539816 1.914505
0.14906068 -0.18393798 1.9149383
0.16208325 -0.18404599 1.9111412
0.17443211 -0.18553045 1.9103589
0.18473087 -0.18651271 1.9103843
0.19755915 -0.18628715 1.9162358
0.210279 -0.18792051 1.915325
0.22317278 -0.1872704 1.91491
0.238609 -0.182227 1.90813
0.2466955 -0.18327701 1.90991
0.26010674 -0.18486699 1.9111224
0.26994529 -0.18620814 1.9140186
0.28171021 -0.185783 1.915982
0.29301766 -0.187391 1.9163666
0.30412665 -0.18875165 1.9177933
0.31429702 -0.1867855 1.917995
0.32414499 -0.18797401 1.91891
-0.064166501 -0.17718601 1.918065
-0.055374887 -0.17453828 1.91605
-0.041894551 -0.17337734 1.914835
-0.027791325 -0.17357324 1.9123449
-0.01766224 -0.17394619 1.9096501
-0.0062569804 -0.17488416 1.9143715
0.0049730195 -0.17327145 1.9146399
0.018134063 -0.17393214 1.9146299
0.029525036 -0.17335488 1.9140248
0.042142436 -0.17358591 1.9143391
0.054119699 -0.17424999 1.916985
0.066308297 -0.17579643 1.9167758
0.078209899 -0.1747112 1.917044
0.089325696 -0.17382801 1.916685
0.098664001 -0.175754 1.91856
0.1128765 -0.1761945 1.91915
0.1257365 -0.173214 1.915325
0.14013501 -0.17242199 1.91233
0.15001385 -0.17482373 1.9146172
0.16251519 -0.17305359 1.9139779
0.17534001 -0.17360261 1.9144819
0.18525833 -0.17606501 1.9150766
0.19588566 -0.17434867 1.91915
0.20975535 -0.17599635 1.9183
0.23704533 -0.17408401 1.90915
0.244312 -0.17373832 1.9143882
0.25579882 -0.17419261 1.9154841
0.27069002 -0.17438875 1.9142975
0.27946401 -0.1742858 1.9181181
0.308898 -0.17212901 1.91855
-0.054812122 -0.1614062 1.9184319
-0.038752466 -0.16438568 1.9175533
-0.029626038 -0.16114837 1.9152361
-0.016317433 -0.16205734 1.9137067
-0.0068915947 -0.16353799 1.9143376
0.0055669369 -0.16229512 1.9155777
0.017585073 -0.16254272 1.9139072
0.027945282 -0.16158149 1.9156851
0.04090916 -0.1633894 1.91609
0.05514805 -0.16574501 1.91915
0.077581406 -0.1672 1.9167
0.11360732 -0.16374433 1.9165999
0.12564133 -0.16260366 1.9136251
0.13925049 -0.16318433 1.9142834
0.1491842 -0.16172878 1.9150959
0.16261731 -0.16272789 1.9153609
0.1749015 -0.16193183 1.9141301
0.18505985 -0.16267499 1.9140501
0.1978398 -0.1621152 1.9127699
0.20870264 -0.163179 1.9126667
0.22237161 -0.1602356 1.911328
0.23647983 -0.16286732 1.9109284
0.24689649 -0.16195825 1.9142075
0.25983199 -0.16205339 1.9138619
0.27091229 -0.16187085 1.9152786
0.27742499 -0.163691 1.91982
0.29679501 -0.166007 1.91927
0.30961701 -0.167532 1.91878
0.31671801 -0.16370299 1.91874
-0.050629269 -0.15260901 1.9184266
-0.040733427 -0.15071926 1.9165199
-0.0278531 -0.149469 1.9165349
-0.018612275 -0.1496225 1.913955
-0.0080466364 -0.150923 1.915494
0.0044638142 -0.15130159 1.9152442
0.018480377 -0.15039624 1.915499
0.029365743 -0.15008986 1.9177473
0.039399847 -0.15526 1.91915
0.11521 -0.154806 1.91405
0.1258705 -0.15044099 1.9169189
0.13856861 -0.1499158 1.9186399
0.15066038 -0.15004098 1.9165539
0.16296092 -0.14959076 1.9149441
0.17372909 -0.15069242 1.9142879
0.18562299 -0.151338 1.9133333
0.19905275 -0.15089776 1.9096376
0.2102365 -0.15003283 1.9125067
0.2233135 -0.14927925 1.91334
0.23528662 -0.149488 1.9156401
0.2480015 -0.15011351 1.9155666
0.25937 -0.15000933 1.9164467
0.26933125 -0.15053999 1.9174
0.29017749 -0.15095249 1.91932
-0.041851673 -0.13882324 1.919215
-0.030709734 -0.14090633 1.91852
-0.018647579 -0.13921881 1.9161021
-0.0065844851 -0.1375335 1.916505
0.0065449802 -0.143556 1.91513
0.019527068 -0.141514 1.91807
0.026274201 -0.139524 1.91915
0.136518 -0.136843 1.91915
0.14981866 -0.13783966 1.9173533
0.16059917 -0.13747518 1.9173399
0.17400999 -0.13830151 1.9159701
0.18648601 -0.13729332 1.91441
0.19806933 -0.13868983 1.9131017
0.20881025 -0.13784525 1.91644
0.223648 -0.1381688 1.914616
0.2349595 -0.13711183 1.9155601
0.24597451 -0.13783699 1.916795
0.25791842 -0.13787 1.9154699
0.26769659 -0.1383436 1.9175841
0.28205448 -0.135472 1.9175351
0.29174301 -0.13676099 1.91728
-0.00116729 -0.124663 1.91733
0.040250234 -0.125413 1.91745
0.140406 -0.12664101 1.91924
0.151307 -0.12532051 1.916105
0.16060549 -0.12663175 1.9173676
0.175595 -0.12742451 1.91836
0.18751201 -0.12533049 1.9192901
0.19475749 -0.12872 1.9184101
0.20922661 -0.12673579 1.919
0.222831 -0.12489749 1.9154251
0.23186874 -0.12618625 1.9163775
0.24264999 -0.128537 1.9175568
0.252756 -0.13155501 1.91802
0.27055266 -0.12759532 1.9187199
0.28102565 -0.12747401 1.9192001
-0.002091185 -0.117348 1.917585
0.0065984996 -0.116524 1.919845
0.0332652 -0.116102 1.91918
0.150626 -0.117789 1.91824
0.16084251 -0.1191925 1.91863
0.186048 -0.112692 1.91982
0.192771 -0.113637 1.91997
0.21499801 -0.1141815 1.9185851
0.22611099 -0.11640966 1.9161767
0.23328274 -0.11423 1.9174275
0.258203 -0.108076 1.91734
0.1843425 -0.1074095 1.91907
0.222764 -0.107923 1.919
0.260443 -0.1036795 1.919395
0.26853767 -0.101662 1.9194466
0.276714 -0.106073 1.91914
0.25210601 -0.092753597 1.91995
0.26693001 -0.094907299 1.91796
0.2488005 -0.050687902 1.9182949
0.2723825 -0.049882501 1.91833
0.28000399 -0.053667299 1.91993
0.212029 -0.0368894 1.91654
0.22021499 -0.038381651 1.9184999
0.23853 -0.041510101 1.9168
0.24560638 -0.041754279 1.9164841
0.25836167 -0.040121101 1.91761
0.27053773 -0.041031625 1.9169376
0.28210768 -0.041107465 1.91808
0.29421076 -0.039170474 1.9149649
0.301 -0.037995499 1.91491
0.32004476 -0.042758323 1.91924
0.32844901 -0.0383702 1.91967
-0.111983 -0.026972501 1.91906
-0.089091197 -0.033177249 1.9190199
-0.080667898 -0.031929702 1.9179699
0.19507501 -0.0340527 1.91989
0.20847949 -0.028855998 1.9181975
0.22248065 -0.032102168 1.9163667
0.2332195 -0.030645803 1.9140098
0.24656999 -0.030485876 1.9109551
0.25631216 -0.029891184 1.913805
0.27051234 -0.030040281 1.9141083
0.28256235 -0.029802399 1.9131333
0.29473859 -0.029091001 1.91106
0.30589461 -0.030277139 1.914106
0.31619298 -0.027679149 1.9146374
0.33068314 -0.029234499 1.9158019
0.3419176 -0.030413762 1.9162982
0.35480481 -0.0300554 1.917228
0.362719 -0.0259939 1.9189
-0.139081 -0.0121291 1.9188499
-0.11205649 -0.016226726 1.9191101
-0.065367363 -0.016720101 1.9186268
-0.053510278 -0.017200941 1.9177601
-0.040249802 -0.01619675 1.9188399
-0.0308006 -0.0147772 1.91857
0.18647601 -0.0123789 1.91868
0.19796324 -0.016941 1.9170325
0.21208349 -0.018209599 1.9150776
0.22191751 -0.018726351 1.9138999
0.23310268 -0.017411666 1.9111
0.24838634 -0.021793634 1.9086266
0.25761399 -0.020244099 1.90876
0.26739699 -0.022053599 1.90869
0.280747 -0.0221186 1.90863
0.29550499 -0.0225098 1.91029
0.30584899 -0.019685276 1.9102449
0.31961843 -0.018242987 1.9110501
0.32986283 -0.017263399 1.9158598
0.3438988 -0.01764442 1.9169201
0.35332534 -0.021073235 1.9190167
-0.132523 -0.0110943 1.91959
-0.120957 -0.0092644002 1.91904
-0.11334626 -0.0056663225 1.9176875
-0.1007987 -0.0053853258 1.9162129
-0.090164207 -0.00599956 1.9165801
-0.075977467 -0.0053904434 1.9183401
-0.067675598 -0.0073316633 1.9176801
-0.0539026 -0.0068278797 1.9186634
-0.042884696 -0.0067633167 1.9187833
-0.029730201 -0.0022683141 1.918265
-0.01701745 -0.0052547147 1.9170325
-0.0077836299 -0.00134824 1.91676
0.00087928999 -3.0584e-05 1.919
0.18540435 -0.0054014735 1.9164801
0.19821066 -0.0060301437 1.9132134
0.20709124 -0.0047602756 1.912315
0.22160725 -0.00618434 1.90986
0.235358 -0.01121285 1.90897
0.31948099 -0.0061387182 1.9102739
0.33065397 -0.0064975806 1.9132299
0.34143013 -0.0063785883 1.9154271
0.35368049 -0.0054815398 1.9163475
0.36155 -0.0047086598 1.914655
-0.12571999 0.0054439516 1.9179201
-0.11522251 0.0059770406 1.9176067
-0.10156995 0.005806712 1.9152517
-0.08818046 0.0055747801 1.9160767
-0.077936299 0.0048067849 1.9167025
-0.064978756 0.0054281503 1.916168
-0.053639874 0.0074937297 1.9172175
-0.044660248 0.0052464302 1.9177001
-0.031488776 0.0048692296 1.91757
-0.019575465 0.0034457967 1.9169668
-0.0034024713 0.0059757768 1.9178534
0.004354395 0.0080231847 1.91679
0.18382999 0.00327759 1.91741
0.19773899 0.0067305095 1.914368
0.212239 0.0055076652 1.911075
0.22270501 0.0059957299 1.9095175
0.230198 0.0095090801 1.908
0.25069201 0.0103807 1.90834
0.32193801 0.0025461174 1.9104267
0.33110467 0.0054235663 1.9103066
0.34178132 0.0063407961 1.9148822
0.35375476 0.0061932602 1.9188225
-0.12808734 0.016551033 1.91776
-0.10168426 0.017124487 1.9171714
-0.090358734 0.018103166 1.91826
-0.074229904 0.0126975 1.91868
-0.06623932 0.01790488 1.918422
-0.05454655 0.018358676 1.9162874
-0.0416172 0.0155736 1.919225
-0.034458 0.01427 1.91959
0.18551068 0.018076867 1.9187199
0.19924875 0.017949626 1.9158325
0.21173334 0.018015699 1.9140733
0.22113249 0.0186703 1.91189
0.23513941 0.017397199 1.9088141
0.32880598 0.02089655 1.908145
0.34149772 0.017863601 1.9128057
0.35364357 0.017965557 1.9180971
0.36396801 0.018891567 1.91829
0.372082 0.023373799 1.91936
-0.092739597 0.030183852 1.9189099
-0.081672028 0.030876474 1.9189274
-0.06665834 0.029541081 1.9185441
-0.054087177 0.0282475 1.9185375
0.2008325 0.028899349 1.9182074
0.210638 0.03068085 1.917675
0.22122268 0.031049535 1.9142933
0.23418263 0.029418221 1.910816
0.247815 0.0354749 1.90948
0.3325395 0.0295658 1.90941
0.34240368 0.029802987 1.9124568
0.35047001 0.0280481 1.91694
0.36358398 0.02521145 1.918965
-0.077224597 0.0365097 1.91952
-0.065365702 0.0385537 1.9186701
0.2093235 0.03846705 1.91705
0.219165 0.041410699 1.91839
0.23408075 0.042030025 1.9141476
0.24484701 0.042650234 1.9116033
0.25947201 0.045259252 1.9100549
0.26412299 0.0418262 1.90809
0.32177699 0.039014999 1.9092799
0.33402702 0.041076869 1.9102765
0.34134588 0.041841466 1.916185
0.35354733 0.041496534 1.91877
0.23294678 0.054417599 1.917078
0.24599999 0.053079799 1.91486
0.256212 0.054300357 1.9144859
0.27282199 0.054559302 1.9087334
0.28326401 0.057105452 1.908855
0.2933045 0.057283849 1.9088149
0.31902286 0.053243082 1.9103299
0.33037174 0.053771123 1.9134901
0.34081301 0.053792581 1.9159249
0.23594101 0.064356364 1.9179567
0.24638367 0.065344431 1.9169601
0.25865525 0.0662902 1.9151676
0.26790601 0.067868397 1.913015
0.28348178 0.065799437 1.9111059
0.29129201 0.067431346 1.91299
0.30479223 0.0679392 1.9110525
0.32080901 0.065470152 1.9124925
0.33101264 0.065526649 1.9153017
0.34173602 0.065438271 1.9174275
0.25775552 0.075113051 1.917865
0.2691415 0.077418298 1.91715
0.28185183 0.0778623 1.913892
0.29371279 0.078050882 1.9167941
0.30649173 0.078444771 1.9165925
0.31991178 0.077679299 1.9153321
0.32739499 0.077507533 1.9160132
0.268502 0.084941998 1.91934
0.282199 0.086624101 1.9194601
0.29037699 0.084666699 1.9175
0.308631 0.085207 1.9191999
-0.2694985 -0.6850425 1.92117
-0.26158658 -0.67814171 1.9254085
-0.25725353 -0.66653407 1.9256089
-0.25043499 -0.66160101 1.9205
-0.25620383 -0.6544345 1.9277016
-0.248983 -0.64925748 1.921605
-0.25500426 -0.64279026 1.92764
-0.24931049 -0.64104569 1.922985
0.46023533 -0.64099753 1.9254376
-0.2443475 -0.63131183 1.927435
-0.23856674 -0.62604272 1.9229875
0.45090646 -0.63037413 1.9252173
0.45678201 -0.635212 1.9299901
-0.243599 -0.62251401 1.93185
-0.23515338 -0.61748445 1.92607
0.44214103 -0.61642504 1.9220333
0.45083845 -0.61766315 1.9263145
-0.23233727 -0.60558575 1.9268029
-0.22650401 -0.60434765 1.9223499
0.44133416 -0.60569 1.9235899
0.44737449 -0.60756397 1.9290025
-0.230249 -0.59639066 1.9264001
-0.22504899 -0.59322697 1.9250225
0.44035184 -0.59182382 1.9238616
0.44544733 -0.59386498 1.9281801
-0.22270733 -0.58260745 1.9266989
0.42852297 -0.5809682 1.9249216
0.43750069 -0.585738 1.9269366
-0.228652 -0.56852448 1.927235
-0.22133379 -0.57117558 1.9233481
-0.2133605 -0.56824768 1.9260769
-0.198212 -0.56884652 1.9232838
0.41863999 -0.56781399 1.921015
0.42787966 -0.56984496 1.926185
0.43681449 -0.56653297 1.9258475
-0.22027871 -0.55789071 1.9284657
-0.20978643 -0.55907589 1.9243337
-0.19823021 -0.55607283 1.9269661
-0.18827701 -0.55736202 1.92169
-0.17781299 -0.56257999 1.92169
0.417472 -0.55781698 1.9255149
0.42670196 -0.55452323 1.9259362
0.43441063 -0.55965984 1.92663
-0.2210035 -0.55026448 1.9307699
-0.21000123 -0.54626626 1.9272523
-0.19950829 -0.54549801 1.9273627
-0.18575576 -0.544559 1.9223275
-0.17541325 -0.54494148 1.9236026
-0.16330139 -0.54419601 1.9227101
0.407565 -0.541125 1.92169
0.41669735 -0.54540998 1.924755
0.42414451 -0.54558873 1.9303277
-0.20901775 -0.53433216 1.9273224
-0.19420099 -0.53573698 1.9280651
-0.18693399 -0.53440082 1.9288299
-0.16956775 -0.53537351 1.9312525
-0.16005251 -0.53563875 1.9274275
-0.15173 -0.53405899 1.92169
0.40524948 -0.53367949 1.922965
0.41620785 -0.53346014 1.9253957
0.42168275 -0.53537887 1.9290943
-0.20907524 -0.52584326 1.9262249
-0.19910002 -0.52277464 1.9255714
-0.1904135 -0.52013302 1.9308801
-0.16822951 -0.52084398 1.9306149
-0.15992166 -0.52208585 1.9255151
-0.1506525 -0.52045798 1.92424
-0.14149199 -0.51657403 1.92424
-0.090151399 -0.517232 1.92515
0.39233866 -0.5208177 1.92339
0.40197951 -0.52077937 1.9255638
0.41200462 -0.52368844 1.92682
-0.19424251 -0.5120315 1.925095
-0.18563467 -0.50681871 1.9247166
-0.17204675 -0.50848329 1.925895
-0.16170999 -0.50915062 1.92781
-0.149664 -0.50976151 1.9280651
-0.13982533 -0.50986099 1.92509
-0.080586292 -0.51162034 1.92513
-0.071716897 -0.50618601 1.92564
0.286791 -0.51168102 1.92342
0.37926298 -0.50513053 1.922965
0.38927576 -0.51148576 1.9274275
0.40282679 -0.51012921 1.92583
0.41214961 -0.51058602 1.927768
-0.193174 -0.50321901 1.93038
-0.18551514 -0.49815184 1.9257789
-0.17211589 -0.49728569 1.9236423
-0.16007525 -0.49897677 1.92679
-0.14953524 -0.49883476 1.9261525
-0.14133599 -0.50029302 1.92169
-0.072886802 -0.50129497 1.92756
-0.0607296 -0.49527201 1.92528
-0.055591501 -0.49939299 1.92002
0.27389801 -0.50002301 1.92058
0.36909801 -0.49768451 1.92424
0.37897962 -0.49844843 1.9293401
0.39293522 -0.49756899 1.9256939
0.40070584 -0.49678266 1.9288883
0.409181 -0.49829701 1.93053
-0.1820845 -0.49010348 1.92933
-0.17102683 -0.48639283 1.9273416
-0.16284901 -0.4844327 1.9235433
-0.14892668 -0.49008569 1.92934
-0.13851659 -0.48676339 1.92577
-0.13099 -0.48242849 1.922965
-0.076076835 -0.48946032 1.9301167
-0.071576796 -0.48053601 1.93027
-0.056523047 -0.48686051 1.92317
-0.045819901 -0.48371899 1.92153
0.36478665 -0.48641035 1.92424
0.3765513 -0.4867579 1.9297044
0.39150286 -0.48414063 1.9250538
0.40172157 -0.48749322 1.927384
