# .PCD v0.7 - Point Cloud Data file format
VERSION 0.7
FIELDS x y z
SIZE 4 4 4
TYPE F F F
COUNT 1 1 1
WIDTH 1412
HEIGHT 1
VIEWPOINT 0 0 0 1 0 0 0
POINTS 1412
DATA ascii
-0.1634876 3.2279141 0.019886255
-0.16958587 3.2278452 0.019630194
-0.1758963 3.2282429 0.016540527
-0.18222073 3.2286422 0.013450146
-0.18810277 3.228106 0.016027927
-0.19468133 3.2289674 0.010101795
-0.2010427 3.2293637 0.0070099831
-0.20716791 3.2292945 0.0067527294
-0.21302994 3.2287555 0.0093307495
-0.21887803 3.2282197 0.011909962
-0.22525938 3.2286158 0.0088169575
-0.2313696 3.2285447 0.0085601807
-0.23777388 3.2289374 0.0054664612
-0.24359401 3.2284019 0.0080463886
-0.2500093 3.2287953 0.0049521923
-0.25612849 3.2287233 0.0046949387
-0.26224473 3.2286525 0.0044379234
-0.26868796 3.2290475 0.0013422966
-0.27548629 3.2299039 -0.0045928955
-0.28127444 3.2293687 -0.0020112991
-0.28740162 3.2292945 -0.0022690296
-0.2935288 3.2292225 -0.0025265217
-0.30002502 3.2296152 -0.0056245327
-0.30653125 3.2300069 -0.0087225437
-0.31267041 3.2299356 -0.008980751
-0.31919953 3.2303243 -0.012080193
-0.32574272 3.2307165 -0.015180111
-0.33230385 3.2311077 -0.018280745
-0.33846003 3.2310362 -0.018539429
-0.34461915 3.2309618 -0.01879859
-0.35120529 3.2313526 -0.021899939
-0.35736638 3.2312782 -0.0221591
-0.36397552 3.2316689 -0.025261641
-0.37059659 3.2320576 -0.028365135
-0.3767727 3.2319818 -0.028625011
-0.38294584 3.2319102 -0.028884411
-0.39007282 3.2327633 -0.03483367
-0.39722982 3.2336161 -0.040783882
-0.40392384 3.234004 -0.043890238
-0.41063285 3.2343936 -0.046997309
-0.41786575 3.2352467 -0.052950382
-0.42667133 3.2374876 -0.067444801
-0.43346319 3.2378745 -0.070554972
-0.44133192 3.2391877 -0.079360247
-0.4481658 3.2395761 -0.082472324
-0.45665529 3.2413507 -0.094128132
-0.46631348 3.2440538 -0.11148238
-0.47830704 3.2486026 -0.14023423
0.46901223 3.2666049 -0.191432
0.46065363 3.2651522 -0.18330479
0.45340344 3.2646337 -0.18078232
0.44459459 3.2627153 -0.16984868
0.43325353 3.2584636 -0.14489484
0.42460355 3.2565436 -0.133955
0.41450569 3.2532272 -0.11459947
0.40649682 3.2517781 -0.10645795
0.3975594 3.2493939 -0.092704773
0.38917518 3.2474768 -0.081753492
0.38085586 3.2455602 -0.070800066
0.37352112 3.2445762 -0.065455675
0.36713085 3.2445254 -0.065722466
0.35984206 3.2435391 -0.060376406
0.35170561 3.2416244 -0.049415112
0.34362811 3.2397101 -0.038451195
0.33731282 3.2396569 -0.038715124
0.33099353 3.239603 -0.038979053
0.32385859 3.238621 -0.033626556
0.31594697 3.2367053 -0.022655725
0.30928129 3.2361875 -0.020109177
0.30301699 3.2361341 -0.02037096
0.29674965 3.2360814 -0.020632744
0.29011199 3.2355628 -0.018085003
0.28312495 3.2345772 -0.012726307
0.27652422 3.2340591 -0.010176659
0.27028587 3.2340069 -0.01043725
0.26370817 3.2334867 -0.0078873634
0.25714546 3.2329659 -0.0053365231
0.2505967 3.2324491 -0.002784729
0.24406193 3.2319283 -0.00023245811
0.23754418 3.2314091 0.0023202896
0.23164125 3.2318187 -0.00075173378
0.22718556 3.2345498 -0.017890215
0.19335242 3.2296269 0.0089478493
0.18618317 3.2277136 0.019949198
0.17955522 3.2267306 0.025322437
0.17318855 3.2262096 0.027881622
0.16750447 3.2270799 0.02199316
0.16135962 3.2270224 0.021735907
0.15541944 3.2274315 0.018662214
0.14906709 3.2269077 0.021221399
0.1425385 3.2259228 0.02659893
0.13640793 3.2258656 0.026342154
0.1304507 3.2262716 0.023267508
0.12414388 3.2257512 0.025829077
0.11785418 3.2252281 0.028391123
0.11157583 3.2247081 0.030953407
0.10574934 3.2255738 0.025058746
0.099755183 3.2259765 0.021982193
0.093485467 3.2254534 0.024545193
0.087110564 3.2244699 0.029928923
0.080994256 3.2244098 0.029672623
0.074985854 3.2248135 0.026595831
0.06895753 3.2252128 0.023517847
0.062917814 3.225615 0.020439386
0.05669646 3.2250924 0.023004293
0.050339021 3.2236447 0.03121376
0.044166051 3.2231207 0.033780336
0.038182981 3.2239847 0.027879238
0.032168701 3.2248459 0.021976471
0.02612583 3.2257066 0.016072512
0.019944362 3.2251823 0.018638611
0.013833457 3.2255809 0.015557051
0.0076662907 3.2250559 0.018123865
0.0015411908 3.2254543 0.015041828
-0.0045981845 3.2258525 0.011959076
-0.010754666 3.2262516 0.0088758469
-0.01694867 3.2275722 0.00013995171
-0.023133583 3.2275057 -0.00011944771
-0.029314838 3.227442 -0.0003786087
-0.035461798 3.2269151 0.002188921
-0.041638054 3.2268515 0.0019299984
-0.047760025 3.2263241 0.0044984818
-0.053927243 3.2262576 0.0042395592
-0.060026243 3.2257314 0.0068092346
-0.066108271 3.225204 0.0093791485
-0.072175302 3.2246771 0.011950016
-0.078229323 3.2241502 0.014521122
-0.084262371 3.2236235 0.01709342
-0.090281442 3.2230971 0.019666195
-0.096283503 3.2225688 0.022239447
-0.1022716 3.2220426 0.024813414
-0.10824171 3.2215164 0.027388334
-0.11432999 3.2214487 0.02713275
-0.1205624 3.2218401 0.024045467
-0.12665869 3.2217753 0.023789883
-0.13275595 3.2217064 0.023533821
-0.13868307 3.2211778 0.026110172
-0.14494248 3.22157 0.023021936
-0.15103573 3.2215011 0.022766113
-0.15674676 3.2205143 0.028177023
-0.16282304 3.2204456 0.027921915
-0.16889928 3.220377 0.027666807
-0.17540075 3.2212281 0.021742821
-0.18171109 3.2216167 0.018652678
-0.18757628 3.2210889 0.021231413
-0.19413762 3.2219365 0.015305281
-0.20048395 3.2223277 0.012213469
-0.20684521 3.2227147 0.0091207027
-0.21270239 3.2221878 0.011700153
-0.21853958 3.221657 0.014280081
-0.22491482 3.2220449 0.011186838
-0.23102 3.2219732 0.0109303
-0.23683326 3.2214468 0.013511658
-0.24292748 3.221375 0.013255358
-0.24932873 3.2217627 0.010160923
-0.25542995 3.2216918 0.009904623
-0.26153213 3.2216198 0.0096480846
-0.26796135 3.2220073 0.0065524578
-0.27440548 3.2223916 0.0034563541
-0.28086367 3.2227788 0.00035953522
-0.28698286 3.2227068 0.00010228157
-0.29310206 3.2226357 -0.00015473366
-0.2995882 3.2230196 -0.0032527447
-0.30571336 3.2229476 -0.0035102367
-0.31183451 3.2228737 -0.0037677288
-0.31834966 3.2232602 -0.0068669319
-0.32487974 3.2236426 -0.0099668503
-0.3314198 3.224026 -0.013067245
-0.33797789 3.2244122 -0.016168118
-0.34370613 3.2238805 -0.01358366
-0.34941539 3.223351 -0.010998249
-0.35554856 3.2232769 -0.011256218
-0.36257046 3.224117 -0.017202377
-0.36916846 3.2244997 -0.020305157
-0.37578249 3.2248824 -0.023408175
-0.38194162 3.2248099 -0.023667097
-0.38953125 3.2261031 -0.032462597
-0.39619422 3.2264853 -0.035568237
-0.40336397 3.2273238 -0.041520119
-0.41006693 3.2277055 -0.04462719
-0.41728857 3.2285407 -0.050581694
-0.42505708 3.2298319 -0.059384584
-0.43182597 3.2302132 -0.062494278
-0.43913859 3.2310503 -0.068452597
-0.44648212 3.2318842 -0.074412107
-0.45440152 3.233175 -0.083220959
-0.46402717 3.2358327 -0.10057735
-0.47599271 3.2403061 -0.12933373
0.45724034 3.2611368 -0.20092893
0.44574308 3.2569537 -0.17596602
0.43283212 3.2513988 -0.14259434
0.42316902 3.248594 -0.1260426
0.41309354 3.2453296 -0.10668254
0.40560168 3.2443609 -0.10134339
0.39667872 3.2420168 -0.087586641
0.38926983 3.2410462 -0.082244158
0.38047779 3.2387033 -0.068481922
0.37407953 3.2386525 -0.068748951
0.36676753 3.2376828 -0.063402891
0.35993689 3.2371712 -0.060862303
0.35179609 3.2352853 -0.049898863
0.34371915 3.233402 -0.038932562
0.33697948 3.2328913 -0.036388397
0.32983232 3.2319231 -0.031034946
0.32353902 3.2318704 -0.031297922
0.31603643 3.2304432 -0.023133755
0.30897823 3.229476 -0.017776966
0.30271992 3.2294204 -0.01803875
0.29608214 3.2289109 -0.015490055
0.28982878 3.2288585 -0.015751123
0.28285053 3.2278891 -0.010390997
0.27590325 3.2269208 -0.0050296783
0.26933342 3.2264087 -0.0024783611
0.26311809 3.2263536 -0.0027382374
0.25623575 3.2253852 0.0026259422
0.25003636 3.2253304 0.0023667812
0.24319999 3.2243624 0.0077323914
0.23732315 3.2247641 0.0046608448
0.23052675 3.2237964 0.010028601
0.22463791 3.2241981 0.0069563389
0.21845056 3.2241423 0.0066976547
0.21281433 3.224999 0.00081038475
0.20606889 3.2240298 0.0061798096
0.19909684 3.222605 0.014365911
0.19216676 3.2211804 0.022553921
0.18577681 3.2206671 0.025112152
0.17940155 3.220155 0.027671576
0.17327097 3.220098 0.027415037
0.16758698 3.220953 0.021525383
0.1612259 3.2204411 0.024085045
0.15529446 3.2208385 0.021010876
0.14855236 3.2194128 0.029206514
0.14242747 3.2193556 0.028950214
0.13612044 3.2188444 0.031512022
0.13018052 3.2192416 0.028437614
0.12389071 3.2187262 0.031000137
0.11777432 3.2186694 0.030744076
0.1115045 3.2181554 0.033307314
0.10554168 3.2185521 0.030231953
0.099425338 3.2184923 0.029975653
0.093178295 3.2179785 0.032539845
0.087070495 3.2179184 0.032284021
0.080846176 3.2174039 0.034849405
0.074852116 3.2177987 0.031772375
0.068744369 3.2177386 0.031516552
0.06272465 3.218132 0.028438568
0.056525998 3.2176158 0.031004429
0.0503444 3.2171016 0.03357172
0.044242375 3.2170389 0.033315897
0.038319096 3.2183402 0.024590015
0.032299295 3.219187 0.018685579
0.026202634 3.2195807 0.015604496
0.01998429 3.2186108 0.020995855
0.013853789 3.2185476 0.02073884
0.0076838294 3.2175751 0.026131868
0.001592801 3.2184215 0.02022481
-0.0045240661 3.2197177 0.011490345
-0.010683439 3.2205634 0.0055804253
-0.016862586 3.2209532 0.0024955273
-0.023038201 3.2208867 0.0022363663
-0.029211454 3.220823 0.0019776821
-0.035353519 3.2203045 0.0045456886
-0.041520774 3.2202408 0.0042872429
-0.047585711 3.2192674 0.0096845627
-0.053735986 3.2192039 0.0094265938
-0.059821106 3.2186849 0.011997461
-0.066034466 3.2190714 0.008910656
-0.072101615 3.2185533 0.011482239
-0.078066617 3.2175798 0.016883612
-0.084091797 3.2170622 0.019456863
-0.090104945 3.2165418 0.022030115
-0.096212246 3.216476 0.021773815
-0.10219739 3.2159557 0.024348497
-0.10816863 3.2154386 0.026923895
-0.1142589 3.2153699 0.026668072
-0.12049223 3.2157562 0.023580551
-0.12658849 3.2156885 0.023324728
-0.13252473 3.2151687 0.025901318
-0.13861004 3.2151029 0.025645971
-0.14469828 3.2150342 0.025390387
-0.15078256 3.2149665 0.025134802
-0.15648879 3.2139957 0.03054738
-0.16275309 3.2143786 0.027458191
-0.16903436 3.2147615 0.024368525
-0.17533059 3.2151444 0.021277905
-0.1809759 3.2141719 0.026692867
-0.18705015 3.2141035 0.026437759
-0.19359638 3.2149372 0.020510674
-0.20017155 3.2157698 0.014582872
-0.20652372 3.216152 0.011490107
-0.21237199 3.2156301 0.014070511
-0.21847127 3.2155623 0.013814211
-0.22457047 3.2154903 0.013557911
-0.23066668 3.2154195 0.013301849
-0.23676594 3.2153509 0.013045549
-0.24256326 3.2148294 0.015627623
-0.2486475 3.2147589 0.015372038
-0.25473571 3.2146881 0.015116215
-0.26081994 3.2146163 0.014860392
-0.26756299 3.2154484 0.0089254379
-0.27433792 3.2162759 0.0029888153
-0.28079599 3.216655 -0.00010848045
-0.28656137 3.2161341 0.0024752617
-0.29303339 3.216512 -0.00062298775
-0.29915255 3.2164381 -0.00088024139
-0.30526873 3.2163661 -0.001137495
-0.31138498 3.216295 -0.0013945103
-0.31749812 3.216223 -0.0016512871
-0.32401311 3.2165987 -0.0047512054
-0.33094695 3.2174246 -0.010694504
-0.3370831 3.2173536 -0.010952234
-0.34321627 3.2172794 -0.011210203
-0.34891966 3.216759 -0.0086240768
-0.35547963 3.217133 -0.011725903
-0.3625043 3.2179594 -0.017673254
-0.36910224 3.218333 -0.020776749
-0.3757171 3.2187097 -0.023880243
-0.38187528 3.2186353 -0.024139166
-0.38898593 3.2194605 -0.030090094
-0.39612746 3.2202826 -0.036042452
-0.40329805 3.2211032 -0.041995764
-0.41000092 3.2214801 -0.045103312
-0.41671464 3.2218528 -0.048211813
-0.4244749 3.2231212 -0.057015657
-0.43175837 3.2239447 -0.062973499
-0.43907082 3.2247651 -0.06893301
-0.44641411 3.225585 -0.074893713
-0.45433322 3.2268519 -0.083704472
-0.46451193 3.2299097 -0.10391355
-0.47536123 3.2334132 -0.12697697
0.46371841 3.2486193 -0.16442442
0.446895 3.2511642 -0.18208575
0.43344742 3.2452474 -0.14590311
0.42326528 3.2420387 -0.12654257
0.41369355 3.2392807 -0.10998392
0.405698 3.2378764 -0.10183787
0.39677358 3.2355692 -0.088078499
0.38840553 3.2337151 -0.077121973
0.38009742 3.2318614 -0.066163063
0.37277928 3.2309055 -0.060815811
0.3659485 3.2304029 -0.058274508
0.35868424 3.2294507 -0.052924871
0.35144904 3.2284966 -0.047574282
0.34337676 3.2266421 -0.036605835
0.33664295 3.2261395 -0.034060478
0.32992506 3.2256382 -0.031514406
0.32321927 3.2251337 -0.028968334
0.31612691 3.22418 -0.023611546
0.30906552 3.2232277 -0.018253803
0.30242166 3.222724 -0.01570487
0.29541418 3.2217712 -0.010344505
0.28880531 3.2212677 -0.0077946186
0.2818498 3.2203135 -0.0024323463
0.27599207 3.2207093 -0.0055036545
0.26942015 3.2202053 -0.0029518604
0.26286519 3.2197025 -0.00039935112
0.25566202 3.2183013 0.0077791214
0.24947365 3.2182455 0.0075201988
0.24360193 3.2186384 0.004447937
0.23709893 3.2181361 0.0070028305
0.23031028 3.2171834 0.012372017
0.22355065 3.2162309 0.017742395
0.21739431 3.2161727 0.017484665
0.21095924 3.2156708 0.020042181
0.20453821 3.2151663 0.022600174
0.19813217 3.2146621 0.025158644
0.19199581 3.2146049 0.024901867
0.1858594 3.2145495 0.02464509
0.17972295 3.2144923 0.024388313
0.17335327 3.2139883 0.026948452
0.1674476 3.2143779 0.02387476
0.16130844 3.2143207 0.023617744
0.15496433 3.2138166 0.026179075
0.14823331 3.2124143 0.034376621
0.14212552 3.2123573 0.034121037
0.13601764 3.2122993 0.033865213
0.13008629 3.2126884 0.030790567
0.12380208 3.2121825 0.033353806
0.11785366 3.2125716 0.030278444
0.11158372 3.2120655 0.032842398
0.10562102 3.2124546 0.029766321
0.099092148 3.211051 0.03797245
0.092998534 3.210994 0.037717342
0.086905025 3.2109342 0.037461996
0.080925331 3.2113202 0.034384966
0.074826106 3.2112603 0.034129381
0.068724006 3.2112005 0.033873796
0.062621936 3.2111406 0.033618212
0.056522779 3.2110806 0.033362865
0.050420657 3.2110178 0.033107042
0.044386856 3.2114031 0.03002739
0.038455345 3.2126846 0.021299839
0.032375991 3.2130694 0.018218517
0.026237 3.2130063 0.017961025
0.01998999 3.2116034 0.026178837
0.013902054 3.211988 0.023097277
0.0077801431 3.211925 0.0228405
0.0016949037 3.213202 0.014106035
-0.0044415658 3.2140307 0.0081956387
-0.010606303 3.2144117 0.0051105022
-0.016773753 3.2143483 0.0048520565
-0.022923931 3.2138374 0.0074205399
-0.029057115 3.2133267 0.0099897385
-0.035173334 3.2128172 0.012559891
-0.041400716 3.2136452 0.0066459179
-0.04751192 3.2131348 0.0092160702
-0.053548083 3.2121775 0.014615774
-0.059550285 3.2112215 0.020017147
-0.0657406 3.2116022 0.016930819
-0.071947858 3.2119799 0.013843775
-0.077904105 3.2110245 0.019247055
-0.083923407 3.210515 0.021821022
-0.089823708 3.2095599 0.027226448
-0.096027955 3.2099376 0.024139404
-0.10200426 3.2094254 0.02671504
-0.10796956 3.2089145 0.029291391
-0.11405187 3.2088487 0.029036045
-0.12013414 3.2087812 0.028780699
-0.12636437 3.2091584 0.025692701
-0.13245167 3.2090929 0.025437117
-0.13853994 3.2090251 0.025181532
-0.14427735 3.2080679 0.030593872
-0.15034766 3.2080021 0.030339003
-0.15603611 3.2070465 0.035753012
-0.16248624 3.2078662 0.029829264
-0.16855352 3.2077987 0.029574633
-0.17462178 3.2077301 0.029319763
-0.18046416 3.2072172 0.031900883
-0.18629557 3.2067065 0.034482241
-0.19257976 3.2070816 0.031392097
-0.19912376 3.2078974 0.02546382
-0.20544788 3.2082748 0.022371769
-0.2115241 3.2082033 0.022116423
-0.21786822 3.2085776 0.019023418
-0.22367665 3.2080641 0.021605968
-0.23003171 3.2084384 0.018512487
-0.23582315 3.2079248 0.021095514
-0.24189639 3.2078543 0.020840406
-0.24796766 3.2077858 0.020585299
-0.25435171 3.2081568 0.017490387
-0.26075274 3.2085295 0.014395237
-0.26716477 3.2089031 0.011299372
-0.27359474 3.2092726 0.0082025528
-0.27969098 3.2092018 0.0079462528
-0.28613997 3.2095742 0.0048487186
-0.29224521 3.2095032 0.0045921803
-0.29871416 3.2098732 0.0014939308
-0.3044486 3.2093606 0.0040793419
-0.31054777 3.2092867 0.0038228035
-0.31703976 3.2096586 0.00072360039
-0.32354566 3.2100284 -0.0023765564
-0.33047125 3.2108386 -0.00832057
-0.33618575 3.210326 -0.0057342052
-0.34188026 3.2098114 -0.0031473637
-0.34799042 3.2097406 -0.0034041405
-0.354976 3.2105491 -0.0093507767
-0.36154485 3.2109182 -0.012453318
-0.36767504 3.2108462 -0.012711048
-0.37472552 3.2116551 -0.018660545
-0.38133934 3.2120237 -0.021765232
-0.38844076 3.2128313 -0.027716637
-0.39605778 3.2140791 -0.036516666
-0.40273851 3.2144461 -0.039623737
-0.40943226 3.2148139 -0.042731524
-0.41614097 3.2151787 -0.045840502
-0.42389184 3.2164242 -0.054645777
-0.43064559 3.2167916 -0.057756186
-0.43847334 3.2180374 -0.066564798
-0.44634718 3.2192817 -0.075375557
-0.45480955 3.2209687 -0.087037086
-0.46444291 3.2235296 -0.10440111
-0.47529238 3.2269745 -0.1274693
0.43250832 3.2377529 -0.14079642
0.42234048 3.2345984 -0.12143159
0.41328469 3.2323298 -0.10767436
0.40529785 3.2309487 -0.099526405
0.39637989 3.2286813 -0.085763454
0.38801944 3.2268553 -0.074804544
0.37971896 3.2250323 -0.063843012
0.37194493 3.2236514 -0.055686235
0.36467254 3.222713 -0.050336123
0.35742909 3.2217758 -0.044984341
0.35021561 3.2208359 -0.039631605
0.34303409 3.2198994 -0.034277439
0.33588457 3.21896 -0.028922081
0.32876301 3.218024 -0.023565292
0.32166946 3.2170854 -0.018207788
0.31461084 3.2161489 -0.012848377
0.30836651 3.2160935 -0.013109446
0.30173755 3.2155981 -0.01055932
0.29512253 3.2151036 -0.0080089569
0.28889522 3.2150474 -0.00826931
0.28193849 3.2141101 -0.0029056072
0.2750138 3.2131729 0.0024592876
0.26846474 3.2126782 0.0050122738
0.26159298 3.2117395 0.010379314
0.25475124 3.2108023 0.015747309
0.24891053 3.2111895 0.012676239
0.24305587 3.2115767 0.0096042156
0.23718524 3.2119617 0.006531477
0.2303964 3.211026 0.011902094
0.2230501 3.2092035 0.022903204
0.21662299 3.2087069 0.025461197
0.21021082 3.2082114 0.028020382
0.20435317 3.2085986 0.02494812
0.19795506 3.2080991 0.027507544
0.19182463 3.208045 0.027251244
0.18569727 3.2079878 0.026994944
0.17956628 3.2079308 0.026738167
0.17320789 3.2074347 0.029299498
0.1673079 3.2078185 0.026225328
0.16117732 3.2077613 0.02596879
0.15463103 3.2068219 0.031348944
0.14791669 3.2054424 0.039549351
0.14163236 3.2049451 0.042113543
0.13573237 3.2053289 0.039039373
0.12981546 3.2057092 0.035964251
0.12371336 3.2056525 0.035708904
0.11777353 3.2060337 0.032633066
0.11151199 3.2055357 0.035198212
0.10540994 3.2054758 0.034942627
0.099034473 3.2045381 0.040330172
0.092821315 3.2040386 0.042896986
0.086864479 3.2044187 0.039820433
0.080890536 3.2047997 0.036742926
0.074797004 3.2047398 0.036487818
0.06860669 3.2042396 0.039055586
0.062609926 3.2046204 0.035977364
0.056599036 3.2049968 0.032898188
0.050573807 3.2053764 0.029818535
0.044531614 3.2057536 0.026738405
0.038534898 3.2065699 0.020832777
0.03235032 3.2060697 0.023401022
0.02622832 3.2060065 0.023144245
0.020103499 3.2059445 0.022887468
0.014064119 3.2071989 0.014153004
0.0079393247 3.2075744 0.011069059
0.0017973343 3.2079506 0.0079848766
-0.0043758219 3.2070088 0.013380051
-0.010520606 3.2069457 0.013122559
-0.016665287 3.2068825 0.012864828
-0.022830017 3.2072554 0.0097789764
-0.028980292 3.2071922 0.009521246
-0.03513357 3.2071288 0.0092632771
-0.041283831 3.2070634 0.0090053082
-0.047386132 3.2065611 0.011576653
-0.053414524 3.2056217 0.016978025
-0.059410937 3.2046797 0.02238059
-0.065447316 3.204179 0.024954319
-0.071549594 3.2041132 0.024698257
-0.077475064 3.203171 0.030103922
-0.083559357 3.2031064 0.029848814
-0.089541785 3.2026031 0.032424927
-0.095840871 3.2034135 0.026506424
-0.10181428 3.2029102 0.029082775
-0.10789657 3.2028446 0.028827667
-0.11370816 3.2019045 0.0342381
-0.11963059 3.2014017 0.036816359
-0.12584075 3.2017703 0.033728838
-0.13206188 3.2021399 0.030640364
-0.13846883 3.2029462 0.024717093
-0.14420648 3.2020068 0.030130625
-0.15027677 3.2019384 0.029875755
-0.15615724 3.201436 0.03245616
-0.16221653 3.2013686 0.032201767
-0.16868846 3.2021742 0.026275635
-0.17455091 3.2016692 0.028856516
-0.18017462 3.2007279 0.03427434
-0.18622589 3.2006598 0.034020185
-0.19251002 3.2010286 0.030929565
-0.1990528 3.2018304 0.025000334
-0.20537683 3.202199 0.021907568
-0.21119435 3.2016945 0.024490356
-0.2169949 3.20119 0.02707386
-0.22278042 3.2006857 0.029658079
-0.22911541 3.201051 0.026564837
-0.23546241 3.2014163 0.023470879
-0.24182639 3.2017815 0.020376205
-0.24820434 3.2021465 0.017281055
-0.25397089 3.2016425 0.01986599
-0.26068154 3.2024426 0.013930082
-0.26676679 3.2023721 0.013674259
-0.27285099 3.2023013 0.013418674
-0.27858859 3.2017975 0.016004562
-0.28466278 3.201726 0.015749216
-0.29109472 3.2020905 0.01265192
-0.29754362 3.2024546 0.0095541477
-0.30400449 3.202816 0.006455183
-0.30971408 3.2023125 0.0090425014
-0.31658158 3.203109 0.0030994415
-0.32268074 3.2030373 0.0028431416
-0.32959118 3.2038336 -0.0031015873
-0.3348732 3.2028956 0.00233078
-0.341391 3.2032564 -0.00077033043
-0.34749222 3.2031846 -0.0010268688
-0.35403296 3.2035449 -0.004128933
-0.36058778 3.2039082 -0.0072314739
-0.36715353 3.2042685 -0.01033473
-0.37419784 3.2050633 -0.016284943
-0.38127109 3.205857 -0.022236586
-0.38789678 3.2062166 -0.025341988
-0.395024 3.2070098 -0.031295776
-0.4011941 3.2069354 -0.031555414
-0.40836328 3.2077281 -0.03751111
-0.41505793 3.2080879 -0.040619373
-0.42330906 3.2097454 -0.052274704
-0.43109962 3.2109675 -0.061083555
-0.43840367 3.21176 -0.067044735
-0.44627625 3.2129824 -0.075856924
-0.45528859 3.2150679 -0.090371132
-0.46492633 3.2175837 -0.10773921
0.44044995 3.2269151 -0.11269474
0.43208742 3.2307253 -0.1384933
0.42294616 3.2284956 -0.12473655
0.41338125 3.2258284 -0.10817027
0.40489548 3.2240348 -0.097213745
0.39598498 3.2218075 -0.083447456
0.38715148 3.2195778 -0.069678068
0.37886757 3.2177832 -0.058713675
0.37064356 3.2159932 -0.04774642
0.36384964 3.2155039 -0.045202494
0.35662198 3.214581 -0.039849043
0.3494263 3.2136581 -0.0344944
0.34225956 3.2127366 -0.029138565
0.33512282 3.2118144 -0.023781061
0.32843381 3.2113242 -0.02123332
0.32134899 3.2104025 -0.015873909
0.31429619 3.2094812 -0.010513067
0.30845559 3.2098625 -0.013584852
0.30182651 3.2093728 -0.01103425
0.29521242 3.2088861 -0.0084831715
0.28786778 3.2075286 -0.00030708313
0.28166342 3.2074735 -0.00056648254
0.27474353 3.2065506 0.004799366
0.26820335 3.2060647 0.0073537827
0.26134038 3.2051423 0.012722492
0.2548362 3.2046537 0.015278101
0.24867482 3.2045994 0.015020609
0.24314208 3.2054112 0.0091338158
0.23665588 3.2049229 0.011690378
0.23018073 3.204432 0.014246941
0.22284198 3.2026446 0.025250912
0.21642374 3.2021561 0.027810097
0.21029635 3.2020988 0.027553797
0.20497753 3.2033434 0.018848181
0.1985613 3.2028527 0.021407366
0.19216307 3.2023625 0.023967266
0.1855339 3.2014432 0.029345751
0.1794122 3.2013862 0.029089689
0.17329013 3.201328 0.028833389
0.16716807 3.2012711 0.028577089
0.16104318 3.2012138 0.028320789
0.15450527 3.2002916 0.033702374
0.14819804 3.1998022 0.036266088
0.14190502 3.1993108 0.038830519
0.13581431 3.199254 0.038575649
0.12989737 3.1996286 0.03550005
0.12379532 3.1995687 0.035244465
0.11769322 3.1995118 0.034989119
0.11159395 3.1994519 0.034733772
0.10549184 3.1993952 0.034478426
0.099116206 3.1984713 0.039866924
0.092900127 3.1979809 0.042434454
0.086943418 3.1983519 0.039356947
0.080969587 3.1987238 0.036278963
0.074770592 3.1982324 0.038847208
0.068782546 3.1986043 0.035768509
0.062688977 3.1985445 0.035513401
0.056760877 3.1993475 0.029609442
0.050653063 3.1992846 0.02935338
0.044610947 3.1996558 0.026272774
0.038551681 3.200026 0.023191214
0.032429773 3.1999629 0.022934675
0.026304957 3.1999009 0.022677898
0.020217203 3.2002707 0.019595146
0.014169567 3.2014999 0.010858297
0.008036376 3.2018673 0.0077736378
0.0018744702 3.201807 0.0075154305
-0.0043018823 3.2004497 0.015739441
-0.010440967 3.2003865 0.015481949
-0.016579963 3.2003231 0.015224695
-0.022736326 3.2006903 0.012139082
-0.028852701 3.2001939 0.014709949
-0.034954146 3.1997013 0.017282009
-0.041124299 3.2000685 0.014195442
-0.047312401 3.2004323 0.011108398
-0.053396851 3.199939 0.013680696
-0.059399441 3.1990139 0.019084692
-0.065374091 3.1980891 0.024489164
-0.071396559 3.1975937 0.027064085
-0.077225439 3.1962397 0.035303116
-0.083486356 3.1970334 0.029384851
-0.089364074 3.1961095 0.034793854
-0.09565597 3.196903 0.028874159
-0.10150173 3.1959796 0.034284592
-0.10757003 3.195914 0.034029961
-0.11350158 3.1954193 0.036608458
-0.11927336 3.1944935 0.042021513
-0.12531573 3.1944292 0.041768074
-0.13151675 3.1947899 0.038679838
-0.13773283 3.1951537 0.035591364
-0.14378612 3.1950853 0.035336971
-0.14984246 3.1950207 0.035083055
-0.15570505 3.1945238 0.037664652
-0.16195005 3.194885 0.034574509
-0.16820808 3.1952481 0.031484604
-0.17426737 3.1951797 0.031230211
-0.18010497 3.194684 0.033812284
-0.18615529 3.1946156 0.033558369
-0.19220355 3.1945484 0.033304214
-0.19849555 3.1949081 0.030212641
-0.2048025 3.1952679 0.027120113
-0.21060611 3.1947722 0.029704094
-0.21665938 3.194701 0.029449701
-0.22270967 3.1946337 0.029195786
-0.22847936 3.1941385 0.03178072
-0.23481424 3.194495 0.028687239
-0.24116115 3.1948543 0.025592804
-0.24813719 3.1960657 0.016816139
-0.25421545 3.195997 0.016561031
-0.26029274 3.1959264 0.016305685
-0.2660414 3.1954315 0.01889205
-0.27210867 3.1953599 0.018636942
-0.2774848 3.194438 0.024066687
-0.28388861 3.1947949 0.020969868
-0.29066497 3.1955776 0.01502943
-0.29710579 3.1959329 0.011931181
-0.30318499 3.1958623 0.011675835
-0.30887973 3.1953669 0.014264107
-0.31573102 3.1961467 0.0083208084
-0.32261229 3.1969285 0.0023760796
-0.32870847 3.1968567 0.0021197796
-0.33439225 3.1963625 0.0047090054
-0.33963448 3.1954389 0.010143995
-0.34570473 3.1953683 0.0098888874
-0.35265189 3.1961462 0.0039412975
-0.36007255 3.1973534 -0.004853487
-0.36708468 3.1981337 -0.010803461
-0.37412977 3.1989107 -0.016755104
-0.3807354 3.1992655 -0.019860506
-0.38687658 3.1991932 -0.020118713
-0.39253432 3.1986961 -0.017528772
-0.39916092 3.1990469 -0.020635128
-0.40679634 3.2002497 -0.029438972
-0.41346788 3.2006028 -0.032547235
-0.4216966 3.2022293 -0.044203758
-0.42946091 3.2034299 -0.053013325
-0.43727419 3.2046299 -0.061825037
-0.44513243 3.2058296 -0.070638418
-0.45412639 3.2078784 -0.08515501
-0.4637506 3.2103493 -0.10252547
0.43824148 3.2237649 -0.13591456
0.43218213 3.224139 -0.13899589
0.42202088 3.2210922 -0.11962223
0.41246831 3.2184739 -0.10305142
0.40350336 3.2162819 -0.089284897
0.39510319 3.2145181 -0.078322649
0.38676485 3.2127578 -0.067357779
0.37848556 3.2109952 -0.056390285
0.37073493 3.2096593 -0.048229694
0.36302835 3.208324 -0.040066719
0.35626525 3.2078438 -0.037521124
0.34863356 3.2065091 -0.029355288
0.34191638 3.2060306 -0.026807308
0.33436167 3.2046967 -0.018638372
0.32768652 3.2042146 -0.016089201
0.3202087 3.2028813 -0.0079169273
0.3135795 3.2024007 -0.0053656101
0.30775601 3.2027743 -0.0084373951
0.30152571 3.202718 -0.0086979866
0.29491946 3.2022407 -0.0061454773
0.28758353 3.2009058 0.0020329952
0.28065839 3.1999998 0.0073997974
0.27412015 3.1995199 0.0099549294
0.26724601 3.1986113 0.015323877
0.2607457 3.1981318 0.017880678
0.25458935 3.1980765 0.017623186
0.2484359 3.1980221 0.017365694
0.24259548 3.1983924 0.014293194
0.23612317 3.1979122 0.016850948
0.22966486 3.1974301 0.019408941
0.22263366 3.1960983 0.027599812
0.2162213 3.195617 0.03015995
0.21037787 3.1959872 0.027087212
0.2047894 3.1967816 0.021196842
0.19838504 3.1963 0.023756981
0.19173871 3.1953936 0.029135704
0.18487538 3.1940606 0.03733325
0.1790157 3.1944275 0.034259558
0.17267989 3.1939468 0.036822796
0.16680287 3.1943169 0.033748627
0.16069506 3.1942599 0.033493042
0.15437928 3.1937761 0.036056995
0.14808044 3.1932948 0.038621902
0.14160207 3.1923881 0.04400754
0.13552558 3.1923285 0.043752909
0.12944625 3.1922717 0.043498516
0.12336984 3.1922152 0.043244362
0.11729056 3.1921554 0.042989731
0.11136802 3.192522 0.039913416
0.10528015 3.1924622 0.039658308
0.099058278 3.1919785 0.042226076
0.092719518 3.1910701 0.047616959
0.086657241 3.1910138 0.047363281
0.080592185 3.1909542 0.047109127
0.074635565 3.1913173 0.044031143
0.068764552 3.192106 0.038129091
0.062768012 3.1924696 0.035049438
0.056757301 3.1928322 0.03196907
0.050655276 3.1927695 0.031713247
0.044621777 3.1931319 0.028632164
0.038511127 3.1930718 0.028376102
0.032351926 3.1925869 0.030946493
0.026338615 3.193372 0.025038004
0.020293862 3.1941559 0.019128084
0.014246614 3.1953623 0.010389566
0.0080501447 3.1944544 0.015786409
0.0019255513 3.194814 0.012701511
-0.0042310646 3.1939063 0.018100023
-0.010361566 3.1938441 0.017843008
-0.01650323 3.1942024 0.014757156
-0.022659577 3.1945608 0.011670828
-0.028829619 3.1949198 0.0085837841
-0.034914374 3.194011 0.013985157
-0.041093402 3.1943688 0.010897875
-0.047286391 3.1947267 0.007809639
-0.053320199 3.1938183 0.013213158
-0.059326008 3.1929073 0.018618107
-0.065226138 3.1915786 0.026855469
-0.071161009 3.1906681 0.032263279
-0.077060923 3.1897612 0.037672043
-0.083316661 3.1905398 0.031753302
-0.089395978 3.1904752 0.031498432
-0.095472284 3.1904097 0.031243324
-0.10130921 3.1895003 0.036654711
-0.10724088 3.1890144 0.0392344
-0.1130249 3.1881056 0.044648409
-0.11891555 3.1876171 0.04722929
-0.12494392 3.1875529 0.046976328
-0.13096926 3.1874878 0.046723366
-0.13749449 3.1886837 0.037964582
-0.14354284 3.1886184 0.037710667
-0.14958714 3.1885509 0.037456989
-0.15544482 3.1880631 0.040039301
-0.16187936 3.188838 0.034112453
-0.16793069 3.1887727 0.033858538
-0.17398399 3.1887045 0.033604383
-0.18025385 3.1890564 0.030513048
-0.1863132 3.1889911 0.030258894
-0.19236948 3.1889236 0.030004501
-0.19818121 3.1884332 0.032588243
-0.20422849 3.1883657 0.032334328
-0.21001826 3.1878784 0.0349195
-0.21578707 3.1873913 0.037505865
-0.22181736 3.187324 0.037252665
-0.22756411 3.1868341 0.039839506
-0.23416345 3.1876044 0.033905506
-0.24079482 3.1883776 0.027970791
-0.24776158 3.1895661 0.019192934
-0.25414535 3.1899161 0.016096354
-0.25990313 3.1894269 0.018682718
-0.26597041 3.1893585 0.018427849
-0.27170312 3.1888688 0.021015406
-0.2770735 3.1879618 0.026446581
-0.28311577 3.1878905 0.026192665
-0.28987798 3.1886594 0.020251751
-0.29667112 3.1894281 0.014309645
-0.30274138 3.1893575 0.014054537
-0.30804378 3.1884503 0.019488573
-0.31527033 3.1896362 0.010699987
-0.32174498 3.1899834 0.0075995922
-0.32782623 3.1899147 0.0073442459
-0.33349308 3.1894255 0.0099341869
-0.33956632 3.1893549 0.0096790791
-0.34606692 3.1897018 0.0065774918
-0.35214615 3.18963 0.006321907
-0.35956058 3.1908152 -0.002474308
-0.36656445 3.1915786 -0.0084252357
-0.37359938 3.1923418 -0.014377594
-0.37972957 3.1922698 -0.014635324
-0.3853794 3.1917818 -0.01204443
-0.39149863 3.1917098 -0.012301683
-0.39810714 3.1920555 -0.015407562
-0.40523094 3.1928179 -0.021363735
-0.41289204 3.1939964 -0.030170679
-0.42059705 3.1951747 -0.038979769
-0.42834717 3.1963534 -0.047790051
-0.43614513 3.1975338 -0.05660224
-0.44398609 3.1987107 -0.065416813
-0.4529655 3.2007205 -0.079935789
-0.46257111 3.203145 -0.097309351
0.4378112 3.2167659 -0.13360953
0.43331552 3.2183924 -0.14511275
0.42211387 3.2145598 -0.12012076
0.41205987 3.2115648 -0.100739
0.40260753 3.2089953 -0.084160328
0.3947078 3.2076809 -0.076004028
0.38589621 3.2055314 -0.062227488
0.37763447 3.2037997 -0.051257372
0.36989659 3.202487 -0.04309392
0.36266351 3.2015948 -0.037738562
0.35545841 3.2007039 -0.032381535
0.34828231 3.1998122 -0.027023792
0.3411372 3.1989188 -0.021664619
0.33402404 3.1980276 -0.016304255
0.3273578 3.1975546 -0.013753891
0.3202976 3.1966622 -0.0083913803
0.31366834 3.1961894 -0.0058395863
0.30744997 3.1961365 -0.0060994625
0.30084065 3.1956639 -0.0035467148
0.29424837 3.1951885 -0.00099349022
0.2865591 3.1934607 0.010000467
0.28038272 3.193408 0.0097424984
0.27385038 3.1929333 0.012298107
0.26733202 3.1924627 0.01485467
0.26083064 3.1919882 0.017411709
0.25467426 3.1919329 0.017154217
0.24852087 3.1918786 0.016896963
0.24204545 3.1914043 0.019454718
0.23528002 3.1905148 0.024829626
0.22914563 3.1904576 0.024572849
0.22242516 3.1895673 0.029949903
0.21630377 3.1895103 0.029693842
0.21046342 3.1898715 0.026620388
0.2046041 3.1902337 0.023546219
0.19820563 3.1897602 0.026107788
0.19156708 3.1888688 0.031487703
0.18496054 3.1879768 0.036869049
0.17910062 3.188339 0.03379488
0.17299281 3.188282 0.033539295
0.16688503 3.1882241 0.033283472
0.16077723 3.1881671 0.033027887
0.15446123 3.1876924 0.035592556
0.14795987 3.1868014 0.040978432
0.14168371 3.1863272 0.043544769
0.13542189 3.1858521 0.046111107
0.12952802 3.1862109 0.043035984
0.1234515 3.1861534 0.042781591
0.11737223 3.1860938 0.04252696
0.11144699 3.1864522 0.03944993
0.10521641 3.1859775 0.042017937
0.099137135 3.1859179 0.041763306
0.092798159 3.1850262 0.04715538
0.086613148 3.184552 0.049725533
0.080556631 3.1844926 0.049471855
0.074608654 3.1848478 0.046393633
0.06864357 3.1852059 0.043314934
0.062664233 3.1855597 0.040235758
0.056584954 3.1855001 0.039981127
0.050582927 3.1858549 0.03690052
0.044563718 3.1862094 0.033819199
0.038530305 3.1865659 0.030737638
0.032428283 3.1865029 0.030481815
0.026372109 3.1868572 0.027399063
0.020336121 3.1876273 0.021488667
0.014240124 3.187978 0.018404007
0.0080865184 3.187501 0.020975113
0.0019761929 3.1878548 0.017889977
-0.004160299 3.187376 0.020461798
-0.010287366 3.1881421 0.014546871
-0.016426347 3.1880789 0.014289379
-0.022562139 3.1880157 0.014032125
-0.028727129 3.1883688 0.010945082
-0.034804054 3.1874738 0.016347885
-0.041016653 3.1882391 0.010429621
-0.047160931 3.1881759 0.010172129
-0.053189933 3.1872826 0.015577078
-0.059186958 3.1863885 0.020983219
-0.065079398 3.1850817 0.029222727
-0.071005471 3.1841884 0.034632206
-0.076900594 3.1832952 0.0400424
-0.083050534 3.1836457 0.036955595
-0.089217477 3.1839957 0.033868313
-0.095287777 3.1839302 0.033613682
-0.10111695 3.1830387 0.039026737
-0.10704271 3.1825581 0.041606903
-0.11295146 3.1820786 0.044187784
-0.11884329 3.181602 0.046769619
-0.12472109 3.1811228 0.049351692
-0.13074045 3.1810577 0.049098969
-0.13708882 3.1818156 0.043174982
-0.14329673 3.1821654 0.040085554
-0.14951755 3.182512 0.036995411
-0.15518485 3.1816192 0.04241538
-0.16141169 3.1819649 0.039324999
-0.16724651 3.1814859 0.041909218
-0.17348735 3.1818323 0.038818121
-0.17974313 3.1821785 0.035726547
-0.18578447 3.1821113 0.03547287
-0.19159134 3.1816318 0.038058043
-0.19738017 3.1811504 0.04064393
-0.20365499 3.1814964 0.037551403
-0.20994769 3.1818395 0.03445816
-0.21571659 3.1813612 0.037045002
-0.22147147 3.1808801 0.039632082
-0.22720937 3.1804023 0.042220116
-0.23322372 3.1803341 0.04196763
-0.24042565 3.1819141 0.030349255
-0.24707977 3.182667 0.024412155
-0.2540752 3.1838353 0.015631437
-0.2595107 3.1829417 0.021061182
-0.26557297 3.1828732 0.020806551
-0.27129686 3.1823926 0.023395061
-0.27700278 3.1819119 0.025984287
-0.28339845 3.1822538 0.022886515
-0.28980708 3.1825955 0.019788265
-0.29623365 3.1829371 0.016689301
-0.30229598 3.1828697 0.016434908
-0.3079769 3.1823893 0.019025087
-0.3148098 3.1831396 0.013079882
-0.32127836 3.1834807 0.0099794865
-0.32694533 3.1830006 0.012570143
-0.33300957 3.18293 0.012315273
-0.33907482 3.1828597 0.012060404
-0.34599862 3.183609 0.0061118603
-0.3520779 3.1835382 0.0058562756
-0.35860139 3.1838789 0.0027532578
-0.3655912 3.1846285 -0.0031981468
-0.3726089 3.1853781 -0.0091507435
-0.37825587 3.1848969 -0.0065593719
-0.3848353 3.185235 -0.0096645355
-0.39046228 3.1847553 -0.0070722103
-0.3970567 3.1850922 -0.010178328
-0.40416339 3.1858408 -0.016134501
-0.41180718 3.1869967 -0.024942875
-0.42052737 3.1889722 -0.039453745
-0.42775595 3.1897185 -0.045415163
-0.43554267 3.1908741 -0.054229021
-0.44391546 3.1924365 -0.065896511
-0.4528954 3.1944094 -0.08041811
-0.4630546 3.197196 -0.10064769
0.43263841 3.2060747 -0.10603619
0.43341041 3.2117882 -0.14561653
0.42220989 3.2080245 -0.1206193
0.41215315 3.2050862 -0.10123324
0.4026992 3.2025626 -0.084651232
0.39431217 3.2008607 -0.073683739
0.38598713 3.1991575 -0.062713861
0.37819797 3.1978703 -0.054550886
0.36998779 3.1961701 -0.043576002
0.36229551 3.1948805 -0.035408974
0.35464826 3.1935906 -0.027240276
0.34748891 3.1927171 -0.021880388
0.34079364 3.1922498 -0.019330978
0.33368623 3.1913726 -0.013968945
0.32702786 3.1909087 -0.011417627
0.31956342 3.1896214 -0.0032413006
0.31335309 3.1895657 -0.0035009384
0.30674666 3.1891022 -0.00094747543
0.30015427 3.1886358 0.0016064644
0.29319978 3.1877601 0.0069744587
0.28664434 3.1872942 0.009529829
0.28010684 3.1868315 0.012086391
0.2739355 3.1867757 0.011828184
0.26741803 3.1863103 0.014384985
0.26091656 3.1858449 0.016942739
0.25442904 3.1853795 0.019500732
0.24795656 3.1849134 0.022059679
0.24118192 3.1840374 0.027435303
0.23443826 3.1831622 0.032812119
0.22832786 3.183105 0.032556534
0.22221448 3.1830502 0.032300711
0.21581788 3.1825857 0.034862757
0.20998962 3.1829391 0.031789541
0.20360808 3.1824718 0.034351587
0.19723849 3.1820078 0.036914825
0.19037756 3.1807203 0.045116425
0.18430109 3.180666 0.04486227
0.17822717 3.1806092 0.044608116
0.17261274 3.1813724 0.03871417
0.16629674 3.1809058 0.041279316
0.16021173 3.1808491 0.041024685
0.15391843 3.1803796 0.043590784
0.147842 3.1803231 0.043336391
0.14157146 3.1798558 0.045902967
0.135318 3.17939 0.048470974
0.12907881 3.1789241 0.051039457
0.12302519 3.1788645 0.05078578
0.1168088 3.1783991 0.053355217
0.11106622 3.179158 0.047455549
0.1051497 3.1795075 0.044378281
0.099078909 3.1794479 0.044123888
0.092748202 3.1785736 0.049518108
0.086448863 3.1776965 0.054913044
0.080406584 3.1776371 0.054660082
0.074367158 3.177578 0.05440712
0.068427764 3.1779273 0.051328897
0.062471412 3.1782734 0.048249722
0.056580879 3.1790309 0.042343855
0.050584562 3.1793766 0.039263248
0.044574022 3.1797254 0.036181927
0.038489044 3.1796656 0.035927057
0.032401208 3.1796029 0.035671949
0.026359439 3.1799483 0.032588959
0.020340763 3.1807015 0.026677608
0.014258982 3.1810496 0.023593426
0.0081427703 3.1809874 0.023337126
0.0020264545 3.1809244 0.023080826
-0.00409305 3.1804538 0.025653601
-0.01020564 3.1812062 0.019738674
-0.016338639 3.1815505 0.016651869
-0.022505045 3.1822994 0.01073432
-0.028650329 3.1822362 0.010476589
-0.034761064 3.1817665 0.013049841
-0.04090035 3.1817033 0.012792587
-0.047036603 3.181637 0.012535095
-0.053000294 3.1803527 0.020773411
-0.058983535 3.1794767 0.026181698
-0.06485831 3.1781931 0.034424067
-0.070932649 3.1781306 0.034169436
-0.076826952 3.1772513 0.039580822
-0.082976788 3.1775937 0.036493063
-0.08914461 3.1779349 0.033405304
-0.095211945 3.1778724 0.033150911
-0.10092483 3.1765873 0.041399479
-0.10658679 3.175307 0.049650431
-0.11247269 3.1748357 0.052232981
-0.11848705 3.1747706 0.051980495
-0.12479829 3.1755159 0.046056747
-0.13082664 3.1754508 0.045803785
-0.13685201 3.1753857 0.045550823
-0.14287739 3.1753216 0.0452981
-0.14908411 3.1756594 0.042208195
-0.15511446 3.1755941 0.041954994
-0.16114579 3.1755271 0.041701794
-0.16696872 3.1750562 0.044286728
-0.17320447 3.1753948 0.041195631
-0.17945121 3.175735 0.038104057
-0.18548749 3.1756668 0.03785038
-0.19152083 3.1755998 0.037597179
-0.19730978 3.1751294 0.040183783
-0.20358549 3.1754665 0.03709054
-0.20961581 3.1753993 0.036837339
-0.21591444 3.1757362 0.033743382
-0.22140209 3.174859 0.039171934
-0.22714008 3.174386 0.041760445
-0.23344375 3.1747239 0.038666248
-0.24005769 3.1754653 0.032729387
-0.24670564 3.1762044 0.026791573
-0.25306621 3.1765406 0.023694754
-0.25911948 3.1764722 0.023440599
-0.26517275 3.1764019 0.023186207
-0.27089077 3.1759303 0.025775671
-0.27693304 3.1758618 0.025521994
-0.28262514 3.1753905 0.028111935
-0.28902066 3.1757233 0.025014162
-0.29505995 3.1756561 0.024760485
-0.30147749 3.1759889 0.021661282
-0.307906 3.1763244 0.018561602
-0.31435251 3.1766579 0.015461206
-0.32041174 3.1765873 0.015206575
-0.32647103 3.1765189 0.014952183
-0.33335772 3.1772556 0.0090038776
-0.34027338 3.1779912 0.0030543804
-0.34721991 3.1787243 -0.0028965473
-0.35288396 3.1782522 -0.00030517578
-0.35853004 3.1777811 0.0022873878
-0.36461526 3.1777093 0.0020315647
-0.37115771 3.1780419 -0.0010728836
-0.37724894 3.1779711 -0.0013289452
-0.38428944 3.1787055 -0.0072836876
-0.39039466 3.1786346 -0.007540226
-0.39649588 3.1785626 -0.007796526
-0.4030962 3.1788945 -0.010903358
-0.41123188 3.1804304 -0.022563219
-0.41994357 3.1823661 -0.037076712
-0.42716292 3.1830995 -0.043038607
-0.4349443 3.1842313 -0.05185461
-0.44330773 3.1857626 -0.063524008
-0.45282423 3.1880982 -0.080900669
-0.46353883 3.1912332 -0.10398674
0.43350732 3.205184 -0.14612055
0.42434809 3.2031078 -0.13235283
0.41275048 3.1990113 -0.10453653
0.40328801 3.1965306 -0.08795166
0.39342937 3.1936481 -0.068553209
0.38559991 3.1923833 -0.060389996
0.3778165 3.1911149 -0.052225351
0.36961389 3.1894469 -0.041247606
0.36192933 3.1881804 -0.033078432
0.35428774 3.1869164 -0.024907351
0.34802043 3.1868608 -0.025169373
0.34088391 3.1860006 -0.019807816
0.33377537 3.1851385 -0.01444459
0.32627964 3.1838739 -0.0062680244
0.31924197 3.1830153 -0.00090146065
0.31303763 3.1829596 -0.0011610985
0.30643916 3.1825023 0.0013933182
0.30024379 3.1824462 0.0011341572
0.29290694 3.1811833 0.0093176365
0.28598922 3.1803231 0.014688492
0.27982685 3.1802676 0.014430761
0.27366546 3.1802132 0.014173269
0.26750308 3.1801586 0.013915539
0.26134169 3.1801033 0.013657808
0.25451493 3.1792409 0.01903224
0.24803929 3.1787846 0.021591902
0.24126448 3.177923 0.026968479
0.2345206 3.1770644 0.032346725
0.22810698 3.1766047 0.034908295
0.22200553 3.1765509 0.034653187
0.21590014 3.1764939 0.034397602
0.20979573 3.1764371 0.034142256
0.20341904 3.1759808 0.036705732
0.19706036 3.1755219 0.039269686
0.19020514 3.1742575 0.047472954
0.18438296 3.1746049 0.044399738
0.17830883 3.1745484 0.044145584
0.17269473 3.1752946 0.038250208
0.1663785 3.1748359 0.040816069
0.16029349 3.1747792 0.040561438
0.15400018 3.1743188 0.043128014
0.14792366 3.1742611 0.042873621
0.141653 3.173804 0.045440912
0.13539957 3.1733429 0.048009157
0.12915741 3.172883 0.050578117
0.12293519 3.1724253 0.053147793
0.11656444 3.1715655 0.058541059
0.11083924 3.1723096 0.052641392
0.104937 3.1726513 0.049564123
0.099020496 3.172992 0.046485901
0.092695303 3.1721315 0.051881552
0.086404279 3.1712725 0.057277918
0.08025898 3.1708126 0.059850931
0.074125059 3.1703539 0.062424183
0.068308786 3.1710951 0.056519985
0.062458344 3.1718349 0.050615072
0.056576513 3.1725755 0.044708252
0.05051152 3.1725161 0.044454098
0.044518076 3.1728568 0.041373014
0.038504891 3.1731935 0.038290977
0.032531947 3.1739333 0.032380342
0.026395205 3.1734734 0.034953594
0.02034495 3.1738107 0.03186965
0.014280402 3.1741478 0.028785229
0.0081988508 3.1744869 0.025700331
0.0020792196 3.1740251 0.028274059
-0.0040227985 3.1739624 0.028018236
-0.010124399 3.174298 0.024932146
-0.016243003 3.1746347 0.021845579
-0.022375874 3.1749711 0.018758535
-0.028469734 3.1745088 0.021332979
-0.034519143 3.1736491 0.026739836
-0.040656902 3.1739845 0.023652077
-0.046762213 3.1739197 0.023396015
-0.052754678 3.1730595 0.028805256
-0.05877655 3.1725957 0.031382799
-0.064858891 3.172533 0.03112793
-0.070938207 3.1724675 0.030872822
-0.076841712 3.1716063 0.036285162
-0.082904056 3.1715438 0.036031008
-0.088861026 3.1710806 0.038611174
-0.094918333 3.1710153 0.038357019
-0.10073095 3.170155 0.043773651
-0.10626183 3.168498 0.054862022
-0.11226721 3.1684332 0.054610014
-0.11841493 3.1687665 0.051521778
-0.12502666 3.1702924 0.039923906
-0.13075435 3.1694326 0.045343876
-0.1366144 3.1689706 0.047928095
-0.14228506 3.1681077 0.05335021
-0.14864807 3.1688375 0.047422886
-0.15485175 3.1691704 0.044332504
-0.16087709 3.1691053 0.044079781
-0.16669215 3.1686406 0.04666543
-0.17270552 3.1685767 0.046413183
-0.17871882 3.1685085 0.046160698
-0.18496047 3.1688411 0.043068886
-0.19097681 3.1687732 0.042816162
-0.19675188 3.1683116 0.045403719
-0.20301251 3.1686411 0.042310953
-0.20902883 3.1685729 0.042058229
-0.21531041 3.168905 0.038964748
-0.22133176 3.168838 0.038712025
-0.22735406 3.1687698 0.038459063
-0.23337342 3.1687019 0.0382061
-0.23969196 3.1690307 0.035110712
-0.24602048 3.1693592 0.032014608
-0.25236696 3.1696875 0.028918028
-0.25840622 3.1696193 0.028664351
-0.2644456 3.1695521 0.028410673
-0.27048188 3.1694839 0.028157234
-0.27651918 3.1694167 0.027903795
-0.28185019 3.1685572 0.033340216
-0.28823066 3.1688852 0.030242205
-0.29425597 3.1688151 0.029988766
-0.30103156 3.169538 0.024044514
-0.30707085 3.1694708 0.023790836
-0.31388935 3.1701901 0.017843962
-0.31994265 3.1701217 0.017589569
-0.3264001 3.170449 0.01448822
-0.33328652 3.1711688 0.008538723
-0.3393608 3.1711004 0.0082836151
-0.34586012 3.1714242 0.0051805973
-0.35150132 3.1709611 0.0077736378
-0.35801861 3.1712849 0.0046696663
-0.36363983 3.1708221 0.0072636604
-0.37062919 3.171541 0.0013098717
-0.37671143 3.1714692 0.001054287
-0.38326874 3.1717956 -0.0020513535
-0.38935596 3.171725 -0.0023071766
-0.39593622 3.1720481 -0.0054135323
-0.40202948 3.1719794 -0.0056695938
-0.40964171 3.1730907 -0.014479637
-0.41884395 3.1753833 -0.031846762
-0.42605013 3.1760991 -0.037809849
-0.43434519 3.1776032 -0.049478531
-0.44270033 3.179106 -0.061149836
-0.45329714 3.1821804 -0.084235907
0.43335253 3.1934814 -0.1098361
0.43048638 3.1962013 -0.12977052
0.42444149 3.1965435 -0.13285375
0.4128409 3.1925218 -0.10503173
0.40288466 3.1896935 -0.085633039
0.3935205 3.1872604 -0.069040537
0.38569173 3.1860185 -0.060875654
0.37790701 3.184773 -0.052709341
0.36923683 3.1827376 -0.038918257
0.36110473 3.181102 -0.027935028
0.35347983 3.1798582 -0.019762039
0.34678531 3.1794076 -0.017211199
0.34010381 3.1789575 -0.014659643
0.33301303 3.1781125 -0.0092949867
0.32594919 3.1772678 -0.0039286613
0.31850716 3.1760256 0.0042521954
0.31191754 3.1755762 0.0068073273
0.30573618 3.1755207 0.0065488815
0.29955381 3.1754661 0.0062904358
0.29223365 3.1742251 0.014476299
0.28570098 3.1737761 0.017034054
0.27918532 3.1733246 0.019592047
0.27304092 3.1732702 0.01933527
0.26654521 3.172822 0.021894455
0.26040587 3.1727645 0.02163744
0.25359982 3.1719193 0.027014256
0.24747442 3.1718655 0.026758194
0.24071635 3.1710207 0.032136679
0.23398627 3.1701763 0.037516594
0.2272882 3.1693292 0.042897701
0.2214991 3.1696692 0.039824963
0.21541168 3.1696124 0.039570093
0.20960063 3.169951 0.036496162
0.20350122 3.169894 0.036241055
0.19714244 3.1694441 0.038805723
0.19028689 3.1682048 0.047010899
0.18446381 3.1685443 0.043936968
0.177911 3.1676984 0.049323797
0.17161749 3.1672461 0.051891088
0.16511843 3.1664019 0.057280302
0.15907897 3.1663456 0.057027578
0.15325086 3.1666813 0.053953171
0.1472028 3.1666248 0.05369997
0.141349 3.166961 0.050624132
0.13510965 3.1665092 0.053193569
0.12870739 3.1656649 0.058586836
0.12233922 3.1648211 0.063981771
0.11615959 3.1643708 0.066553593
0.11030594 3.1647029 0.063477755
0.10458091 3.1654341 0.057576656
0.09868449 3.165767 0.054499149
0.092516258 3.1653159 0.057071447
0.086239293 3.16447 0.062469959
0.080108128 3.1640191 0.065043688
0.074097171 3.16396 0.064791918
0.068286762 3.1646843 0.058887243
0.062445074 3.1654115 0.052981138
0.056569137 3.1661372 0.047073603
0.050438002 3.1656842 0.04964757
0.044527896 3.1664097 0.043738365
0.038523275 3.1667414 0.04065609
0.03255634 3.1674643 0.034744978
0.026471402 3.1674016 0.03448987
0.020421222 3.167733 0.031405449
0.014356771 3.1680641 0.028320551
0.008278125 3.1683941 0.025234938
0.0021555135 3.1679382 0.027809143
-0.0039402163 3.1682692 0.024722815
-0.010047941 3.1682062 0.024466753
-0.016166463 3.1685369 0.021379948
-0.022263676 3.1680806 0.02395463
-0.028343648 3.1676271 0.026530743
-0.034375273 3.1667817 0.031939507
-0.040541276 3.1674995 0.026019096
-0.046637595 3.1674366 0.025763512
-0.052621268 3.1665916 0.031174421
-0.058639266 3.1661358 0.03375268
-0.06478291 3.1664634 0.030664206
-0.07094454 3.1667905 0.027575016
-0.076853283 3.1659462 0.032989025
-0.082734995 3.1650982 0.038403034
-0.088581778 3.1642544 0.043819666
-0.094507881 3.1638007 0.046401739
-0.10030071 3.1629565 0.05182004
-0.10593528 3.161721 0.06007576
-0.11192267 3.1616564 0.059824705
-0.11819758 3.1623731 0.053900003
-0.12480391 3.163868 0.042299986
-0.13052276 3.1630216 0.047721148
-0.13604246 3.1617875 0.055981636
-0.14169039 3.1609426 0.061406136
-0.14821145 3.1620479 0.052640438
-0.15459223 3.1627636 0.046711206
-0.16080381 3.1630874 0.043619871
-0.16662194 3.1626306 0.046206236
-0.17242317 3.162178 0.048793793
-0.17864968 3.1625016 0.045701504
-0.18488722 3.1628251 0.042609215
-0.19114269 3.1631453 0.039515972
-0.19668172 3.1623015 0.044944525
-0.20269008 3.1622367 0.044692516
-0.20843931 3.1617818 0.047281981
-0.21497293 3.162493 0.041346312
