# .PCD v0.7 - Point Cloud Data file format
VERSION 0.7
FIELDS x y z
SIZE 4 4 4
TYPE F F F
COUNT 1 1 1
WIDTH 1593
HEIGHT 1
VIEWPOINT 0 0 0 1 0 0 0
POINTS 1593
DATA ascii
0.40709001 0.45669001 2.44821
0.41374201 0.45666701 2.44821
0.42039499 0.45664501 2.44821
0.427044 0.456622 2.44821
0.43470499 0.45766199 2.4539101
0.44136801 0.457636 2.4539101
0.448553 0.45814401 2.4567599
0.45522201 0.458121 2.4567599
0.46189201 0.45809799 2.4567599
0.46910501 0.458606 2.45961
0.47578299 0.45857999 2.45961
0.48357499 0.45961699 2.4653101
0.49083099 0.460125 2.4681599
0.49810201 0.460632 2.47101
0.504224 0.460076 2.4681599
0.511509 0.460581 2.47101
0.51821202 0.460558 2.47101
0.52552003 0.46106201 2.47386
0.53222603 0.46103901 2.47386
0.53831398 0.46048099 2.47101
0.54501402 0.46045801 2.47101
0.55043799 0.459369 2.4653101
0.55776501 0.45987701 2.4681599
0.56249899 0.458258 2.45961
0.570485 0.459295 2.4653101
0.577833 0.45980299 2.4681599
0.58451903 0.459777 2.4681599
0.58847499 0.45763099 2.4567599
-0.366779 0.458058 2.4909699
-0.36206499 0.46070001 2.5052199
-0.35525 0.46072301 2.5052199
-0.34962201 0.46231601 2.5137701
-0.34278101 0.462336 2.5137701
-0.33632299 0.462883 2.5166199
-0.32872501 0.46185499 2.51092
-0.32189 0.46187499 2.51092
-0.315056 0.46189499 2.51092
-0.30892 0.46296301 2.5166199
-0.30138099 0.461932 2.51092
-0.29454401 0.461952 2.51092
-0.28770399 0.46196899 2.51092
-0.28054699 0.46146399 2.50807
-0.27340201 0.46095699 2.5052199
-0.26627401 0.46044999 2.5023701
-0.25945699 0.46046701 2.5023701
-0.25234801 0.459959 2.4995201
-0.244978 0.45892501 2.49382
-0.237636 0.45789301 2.4881201
-0.230588 0.45738301 2.48527
-0.22407 0.45792401 2.4881201
-0.217039 0.457414 2.48527
-0.210261 0.45742801 2.48527
-0.203017 0.45639101 2.4795599
-0.196256 0.45640501 2.4795599
-0.18971001 0.45694399 2.48242
-0.182519 0.455906 2.4767101
-0.17556199 0.45539299 2.47386
-0.168229 0.453832 2.4653101
-0.161129 0.45279399 2.45961
-0.15424 0.45227799 2.4567599
-0.147366 0.451765 2.4539101
-0.140834 0.452301 2.4567599
-0.133973 0.451785 2.4539101
-0.12697899 0.45074499 2.44821
-0.120159 0.45022899 2.4453599
-0.11335 0.44971001 2.4425099
-0.106684 0.44971901 2.4425099
-0.099900998 0.4492 2.4396601
-0.093024001 0.44815999 2.43396
-0.086175002 0.44711399 2.4282601
-0.079453997 0.44659501 2.42541
-0.072916001 0.44712499 2.4282601
-0.066287003 0.44713101 2.4282601
-0.059657998 0.447137 2.4282601
-0.052903 0.446091 2.42256
-0.046179999 0.44504499 2.4168601
-0.039581999 0.445048 2.4168601
-0.032981001 0.44505101 2.4168601
-0.026412001 0.44557801 2.4197099
-0.019781999 0.44505301 2.4168601
-0.013182 0.44505301 2.4168601
-0.0065839998 0.44505599 2.4168601
1.7e-05 0.44453201 2.41401
0.0066010002 0.44400501 2.41116
0.013153 0.442956 2.4054599
0.0197 0.44242799 2.4026101
0.026261 0.44242799 2.4026101
0.032857999 0.44295001 2.4054599
0.039522 0.44399601 2.41116
0.046105999 0.443993 2.41116
0.052751999 0.44451499 2.41401
0.059340999 0.44451201 2.41401
0.066166997 0.446082 2.42256
0.072865002 0.446601 2.42541
0.079673998 0.44764701 2.4311099
0.086312003 0.44764099 2.4311099
0.093057998 0.44815999 2.43396
0.099583998 0.44762701 2.4311099
0.106097 0.44709399 2.4282601
0.112592 0.44656399 2.42541
0.118934 0.44550699 2.4197099
0.125093 0.44392201 2.41116
0.13151699 0.443389 2.4083099
0.137927 0.44285601 2.4054599
0.14414801 0.441796 2.39976
0.15033901 0.440736 2.3940599
0.156683 0.44020301 2.3912101
0.16320699 0.440191 2.3912101
0.16972999 0.44018 2.3912101
0.176043 0.43964401 2.38836
0.182556 0.43963 2.38836
0.189071 0.43961799 2.38836
0.195584 0.43960401 2.38836
0.202096 0.43959299 2.38836
0.208859 0.44010299 2.3912101
0.215377 0.44008899 2.3912101
0.222426 0.44112301 2.39691
0.228958 0.441109 2.39691
0.235211 0.44057 2.3940599
0.24173801 0.44055301 2.3940599
0.248555 0.44106299 2.39691
0.255694 0.44209501 2.4026101
0.26192799 0.44155401 2.39976
0.26814601 0.441012 2.39691
0.274676 0.44099501 2.39691
0.28153899 0.441502 2.39976
0.288416 0.44200701 2.4026101
0.29530799 0.442514 2.4054599
0.30257201 0.44354299 2.41116
0.309136 0.443526 2.41116
0.316073 0.44402999 2.41401
0.32264301 0.44400999 2.41401
0.33038101 0.445564 2.42256
0.33776501 0.446592 2.4282601
0.344776 0.44709399 2.4311099
0.35097799 0.44655001 2.4282601
0.35674399 0.445481 2.42256
0.36333001 0.445461 2.42256
0.37078899 0.44648701 2.4282601
0.37783399 0.446989 2.4311099
0.38489699 0.44749001 2.43396
0.39197099 0.447992 2.43681
0.399526 0.449018 2.4425099
0.40663701 0.44951901 2.4453599
0.413284 0.44949701 2.4453599
0.419927 0.44947401 2.4453599
0.42706701 0.44997299 2.44821
0.434223 0.45047399 2.4510601
0.440878 0.45045099 2.4510601
0.44753599 0.45042601 2.4510601
0.454191 0.450403 2.4510601
0.46084601 0.45038 2.4510601
0.46804199 0.45087901 2.4539101
0.47470301 0.450856 2.4539101
0.482481 0.45187601 2.45961
0.48915499 0.45185399 2.45961
0.49755201 0.45339799 2.4681599
0.50366801 0.452851 2.4653101
0.51035398 0.45282599 2.4653101
0.51704103 0.45280299 2.4653101
0.52433401 0.453302 2.4681599
0.53163898 0.45379999 2.47101
0.537718 0.45324999 2.4681599
0.54315299 0.45217901 2.46246
0.54919201 0.45163101 2.45961
0.55585903 0.45160601 2.45961
0.56252497 0.451583 2.45961
0.570508 0.45260301 2.4653101
0.57718903 0.45258 2.4653101
0.58386898 0.452555 2.4653101
0.58781701 0.45043701 2.4539101
-0.37143901 0.44869 2.4767101
-0.367643 0.45232701 2.49667
-0.36208501 0.453897 2.5052199
-0.35527 0.453917 2.5052199
-0.34964401 0.455488 2.5137701
-0.34241399 0.454992 2.51092
-0.33596101 0.45552999 2.5137701
-0.328374 0.45451599 2.50807
-0.32190999 0.45505399 2.51092
-0.31471699 0.45455599 2.50807
-0.30858901 0.455607 2.5137701
-0.301743 0.45562699 2.5137701
-0.29489699 0.45564699 2.5137701
-0.28739601 0.454633 2.50807
-0.28056401 0.45465001 2.50807
-0.273422 0.454151 2.5052199
-0.26659599 0.45416799 2.5052199
-0.259767 0.45418501 2.5052199
-0.252653 0.45368299 2.5023701
-0.244992 0.45214999 2.49382
-0.23765101 0.45113301 2.4881201
-0.23034 0.450115 2.48242
-0.223571 0.450129 2.48242
-0.217053 0.45065999 2.48527
-0.210033 0.450158 2.48242
-0.203031 0.449653 2.4795599
-0.196042 0.44915199 2.4767101
-0.18928801 0.44916299 2.4767101
-0.182111 0.44814301 2.47101
-0.17516799 0.44763801 2.4681599
-0.168046 0.44661501 2.46246
-0.16113999 0.44611099 2.45961
-0.15442801 0.44611901 2.45961
-0.14754599 0.44561499 2.4567599
-0.14068 0.445108 2.4539101
-0.133671 0.44408199 2.44821
-0.12669399 0.44305599 2.4425099
-0.119886 0.44254801 2.4396601
-0.113228 0.44255701 2.4396601
-0.106567 0.44256499 2.4396601
-0.099675998 0.44153601 2.43396
-0.092813 0.44051 2.4282601
-0.085980996 0.439482 2.42256
-0.079272002 0.43897101 2.4197099
-0.072751001 0.439493 2.42256
-0.066136003 0.43949899 2.42256
-0.059521001 0.43950099 2.42256
-0.052846 0.438988 2.4197099
-0.046073999 0.43744099 2.41116
-0.039397001 0.436409 2.4054599
-0.032867 0.43693101 2.4083099
-0.026319999 0.43744901 2.41116
-0.019737 0.43744901 2.41116
-0.013153 0.43745199 2.41116
-0.0065669999 0.43745199 2.41116
1.7e-05 0.436418 2.4054599
0.0065870001 0.436418 2.4054599
0.013125 0.43538299 2.39976
0.019677 0.43538299 2.39976
0.026201 0.43486401 2.39691
0.032823998 0.43589601 2.4026101
0.039384998 0.435893 2.4026101
0.045945998 0.43588999 2.4026101
0.052503999 0.43588799 2.4026101
0.059207 0.43691599 2.4083099
0.065935999 0.43794501 2.41401
0.072784998 0.439493 2.42256
0.079493999 0.44000301 2.42541
0.086115003 0.43999699 2.42541
0.092626996 0.43947601 2.42256
0.099126004 0.43895099 2.4197099
0.105855 0.43946201 2.42256
0.112205 0.43842101 2.4168601
0.118381 0.43686199 2.4083099
0.124508 0.435303 2.39976
0.13121501 0.43581101 2.4026101
0.13760699 0.43528301 2.39976
0.143986 0.43475601 2.39691
0.14999101 0.43319699 2.38836
0.156506 0.43318599 2.38836
0.16302399 0.43317401 2.38836
0.16954 0.43316299 2.38836
0.176055 0.43315101 2.38836
0.18257 0.43314001 2.38836
0.188857 0.43261001 2.38551
0.195364 0.43259901 2.38551
0.201868 0.43258399 2.38551
0.20862301 0.43308899 2.38836
0.21539199 0.43358999 2.3912101
0.222175 0.434095 2.3940599
0.22842801 0.43356201 2.3912101
0.234667 0.43303201 2.38836
0.241464 0.43353099 2.3912101
0.247982 0.433516 2.3912101
0.25510401 0.43453401 2.39691
0.26163399 0.434517 2.39691
0.26816401 0.43450001 2.39691
0.27469301 0.43448201 2.39691
0.28155601 0.43498099 2.39976
0.28843299 0.43548 2.4026101
0.294626 0.43494701 2.39976
0.30187699 0.43596199 2.4054599
0.30879101 0.43645799 2.4083099
0.316093 0.43747199 2.41401
0.32266301 0.43745199 2.41401
0.32962301 0.43794799 2.4168601
0.33699301 0.438963 2.42256
0.34398699 0.439459 2.42541
0.35099801 0.439955 2.4282601
0.35676399 0.43889999 2.42256
0.36335301 0.43888 2.42256
0.36994001 0.43885699 2.42256
0.37697101 0.43935299 2.42541
0.38446701 0.44036499 2.4311099
0.39153501 0.44085801 2.43396
0.398617 0.441351 2.43681
0.405238 0.44132799 2.43681
0.412343 0.44182399 2.4396601
0.41946 0.44231701 2.4425099
0.42708901 0.443326 2.44821
0.434246 0.44381899 2.4510601
0.44090399 0.44379401 2.4510601
0.447559 0.443771 2.4510601
0.453159 0.442716 2.4453599
0.46033299 0.443207 2.44821
0.46752301 0.44369999 2.4510601
0.47472799 0.44419301 2.4539101
0.48250601 0.44519901 2.45961
0.489748 0.445692 2.46246
0.49700201 0.44618201 2.4653101
0.50252801 0.44512799 2.45961
0.50861001 0.44458601 2.4567599
0.51586902 0.44507599 2.45961
0.52375299 0.44608501 2.4653101
0.53105199 0.44657499 2.4681599
0.53774399 0.44655001 2.4681599
0.543176 0.44549501 2.46246
0.54857999 0.44443801 2.4567599
0.55588102 0.444931 2.45961
0.56254798 0.44490501 2.45961
0.57053399 0.44591099 2.4653101
0.577214 0.44588801 2.4653101
0.58321899 0.44534701 2.46246
0.58715802 0.443261 2.4510601
0.59034699 0.44066101 2.43681
-0.37359899 0.44450599 2.4909699
-0.36766201 0.445544 2.49667
-0.36087099 0.445564 2.49667
-0.35407901 0.445586 2.49667
-0.348077 0.44662401 2.5023701
-0.341658 0.44715399 2.5052199
-0.33445901 0.44666401 2.5023701
-0.327647 0.446684 2.5023701
-0.32083601 0.446704 2.5023701
-0.313665 0.44621599 2.4995201
-0.307908 0.447761 2.50807
-0.30175999 0.448798 2.5137701
-0.29491401 0.448816 2.5137701
-0.28741601 0.447815 2.50807
-0.279627 0.446307 2.4995201
-0.27312601 0.44683501 2.5023701
-0.26600599 0.44634199 2.4995201
-0.25948799 0.44686899 2.5023701
-0.25238299 0.446376 2.4995201
-0.24501 0.445373 2.49382
-0.23766799 0.44436899 2.4881201
-0.230885 0.44438601 2.4881201
-0.223842 0.44389099 2.48527
-0.217067 0.443905 2.48527
-0.210048 0.44341201 2.48242
-0.203279 0.44342601 2.48242
-0.19650701 0.44343701 2.48242
-0.189519 0.44294199 2.4795599
-0.18233401 0.441935 2.47386
-0.17518 0.440929 2.4681599
-0.16786399 0.43941301 2.45961
-0.160778 0.438407 2.4539101
-0.15425999 0.43892601 2.4567599
-0.147386 0.438427 2.4539101
-0.140526 0.43792799 2.4510601
-0.133369 0.436409 2.4425099
-0.126407 0.43540001 2.43681
-0.119615 0.434899 2.43396
-0.113102 0.43541399 2.43681
-0.10645 0.43542299 2.43681
-0.099680997 0.434921 2.43396
-0.092927001 0.43441701 2.4311099
-0.086085998 0.43340501 2.42541
-0.079278 0.43239301 2.4197099
-0.072586 0.431889 2.4168601
-0.065985002 0.43189499 2.4168601
-0.059386998 0.43189701 2.4168601
-0.052724 0.431393 2.41401
-0.046077002 0.430886 2.41116
-0.039399002 0.42987099 2.4054599
-0.032752998 0.42885399 2.39976
-0.026198 0.42885599 2.39976
-0.019646 0.428859 2.39976
-0.013108 0.429369 2.4026101
-0.006538 0.428859 2.39976
1.7e-05 0.428352 2.39691
0.0065720002 0.428859 2.39976
0.01311 0.42834899 2.39691
0.019680001 0.428859 2.39976
0.026169 0.42783901 2.3940599
0.032786999 0.42885399 2.39976
0.039340001 0.42885101 2.39976
0.045949001 0.42935801 2.4026101
0.052510001 0.429355 2.4026101
0.059138998 0.42986 2.4054599
0.065784998 0.43036401 2.4083099
0.072619997 0.431889 2.4168601
0.079311997 0.43239301 2.4197099
0.085818999 0.431878 2.4168601
0.092200004 0.43085399 2.41116
0.098780997 0.43084601 2.41116
0.10549 0.43134999 2.41401
0.111945 0.430832 2.41116
0.118247 0.42980599 2.4054599
0.124372 0.428269 2.39691
0.13091201 0.42826101 2.39691
0.137291 0.427742 2.3940599
0.143481 0.426716 2.38836
0.14999899 0.426705 2.38836
0.15632901 0.426186 2.38551
0.162645 0.42566401 2.3826599
0.169146 0.42565599 2.3826599
0.175855 0.42615199 2.38551
0.18258099 0.42664999 2.38836
0.188869 0.42612901 2.38551
0.195375 0.42611501 2.38551
0.20163999 0.42559299 2.3826599
0.208389 0.42608899 2.38551
0.214893 0.42607501 2.38551
0.221397 0.426061 2.38551
0.22762699 0.42553601 2.3826599
0.233843 0.425015 2.3798101
0.240905 0.42601499 2.38551
0.24770001 0.42650801 2.38836
0.25451201 0.427001 2.3912101
0.26133999 0.42749399 2.3940599
0.26786101 0.427477 2.3940599
0.27471 0.42796999 2.39691
0.28123999 0.427953 2.39691
0.288111 0.42844301 2.39976
0.29464599 0.428426 2.39976
0.30153799 0.42891601 2.4026101
0.30844399 0.429407 2.4054599
0.315366 0.42989701 2.4083099
0.321922 0.42987701 2.4083099
0.32886401 0.43036699 2.41116
0.336218 0.43136501 2.4168601
0.3432 0.43185201 2.4197099
0.35019401 0.43233901 2.42256
0.35678399 0.43231899 2.42256
0.36337301 0.43229899 2.42256
0.370399 0.432787 2.42541
0.37699401 0.43276399 2.42541
0.38403901 0.43325099 2.4282601
0.39018101 0.43272099 2.42541
0.397241 0.433209 2.4282601
0.40431401 0.43369299 2.4311099
0.41188401 0.434688 2.43681
0.41899499 0.435175 2.4396601
0.42661601 0.436167 2.4453599
0.43376401 0.436654 2.44821
0.440927 0.437139 2.4510601
0.447584 0.437116 2.4510601
0.45318201 0.43607599 2.4453599
0.46035799 0.43656 2.44821
0.46754599 0.43704501 2.4510601
0.47530401 0.43803701 2.4567599
0.48252901 0.438521 2.45961
0.48920399 0.43849501 2.45961
0.49587899 0.43847299 2.45961
0.50138497 0.43743199 2.4539101
0.50804299 0.43740699 2.4539101
0.51589501 0.438398 2.45961
0.52317101 0.43888301 2.46246
0.52984899 0.43885699 2.46246
0.536524 0.438835 2.46246
0.54257202 0.43830201 2.45961
0.54796702 0.43726099 2.4539101
0.55461901 0.43723601 2.4539101
0.561921 0.43772 2.4567599
0.56989801 0.438712 2.46246
0.57523602 0.43767199 2.4567599
0.581891 0.437646 2.4567599
0.58649999 0.43609801 2.44821
0.58898801 0.433029 2.4311099
-0.37319201 0.43723601 2.4881201
-0.36726299 0.43825901 2.49382
-0.36048001 0.43828201 2.49382
-0.35369399 0.43830201 2.49382
-0.347307 0.43882301 2.49667
-0.34051299 0.43884301 2.49667
-0.33371499 0.43886301 2.49667
-0.32692099 0.43888301 2.49667
-0.32048801 0.43940499 2.4995201
-0.31368199 0.43942201 2.4995201
-0.30757701 0.44044501 2.5052199
-0.30109599 0.44096401 2.50807
-0.29393101 0.44048199 2.5052199
-0.286452 0.43949601 2.4995201
-0.27964401 0.43951601 2.4995201
-0.27314499 0.44003201 2.5023701
-0.266325 0.44004899 2.5023701
-0.259211 0.43956399 2.4995201
-0.25182101 0.43857801 2.49382
-0.244744 0.43809399 2.4909699
-0.237682 0.43760899 2.4881201
-0.230634 0.43712199 2.48527
-0.2236 0.436634 2.48242
-0.216583 0.436147 2.4795599
-0.20958 0.43566 2.4767101
-0.20305599 0.43617499 2.4795599
-0.196068 0.43568799 2.4767101
-0.18909401 0.43519801 2.47386
-0.181926 0.43420899 2.4681599
-0.174787 0.43321699 2.46246
-0.167678 0.43222499 2.4567599
-0.160602 0.43123299 2.4510601
-0.154092 0.43174601 2.4539101
-0.147223 0.43125299 2.4510601
-0.14037199 0.43076301 2.44821
-0.133221 0.42926699 2.4396601
-0.126563 0.42927501 2.4396601
-0.119623 0.42828101 2.43396
-0.113111 0.42879099 2.43681
-0.106208 0.42779601 2.4311099
-0.099569999 0.427802 2.4311099
-0.092823997 0.427306 2.4282601
-0.086092003 0.42681301 2.42541
-0.079189003 0.42531401 2.4168601
-0.072420001 0.42431301 2.41116
-0.065834001 0.424319 2.41116
-0.059250001 0.42432499 2.41116
-0.052604001 0.42382601 2.4083099
-0.046025999 0.42382899 2.4083099
-0.039308 0.42232701 2.39976
-0.032676 0.42132699 2.3940599
-0.026107 0.42082801 2.3912101
-0.019577 0.42082801 2.3912101
-0.013076 0.42183399 2.39691
-0.0065299999 0.42183399 2.39691
1.7e-05 0.421332 2.3940599
0.0065469998 0.42083099 2.3912101
0.013079 0.42083099 2.3912101
0.019633999 0.42132899 2.3940599
0.026172001 0.42132899 2.3940599
0.032749999 0.421828 2.39691
0.039297 0.42182499 2.39691
0.045898002 0.422324 2.39976
0.052386999 0.42182001 2.39691
0.059005 0.42231801 2.39976
0.065633997 0.42281401 2.4026101
0.072454996 0.42431301 2.41116
0.079130001 0.42481199 2.41401
0.085721999 0.424806 2.41401
0.091986001 0.423296 2.4054599
0.098555997 0.423287 2.4054599
0.105248 0.423783 2.4083099
0.111689 0.423273 2.4054599
0.117976 0.42226401 2.39976
0.12438 0.421754 2.39691
0.130767 0.421244 2.3940599
0.13697501 0.420232 2.38836
0.14332201 0.41971901 2.38551
0.149831 0.41971099 2.38551
0.156341 0.41969901 2.38551
0.16265699 0.41918901 2.3826599
0.168955 0.41867599 2.3798101
0.175448 0.41866499 2.3798101
0.18215699 0.419155 2.3826599
0.18843301 0.41864201 2.3798101
0.194922 0.41862801 2.3798101
0.20117299 0.41811499 2.37696
0.207904 0.41860199 2.3798101
0.21439099 0.41858801 2.3798101
0.220616 0.41807199 2.37696
0.226826 0.41755599 2.37411
0.233578 0.41804299 2.37696
0.24092001 0.41953099 2.38551
0.247421 0.41951701 2.38551
0.25422701 0.420001 2.38836
0.261044 0.420486 2.3912101
0.26755899 0.420472 2.3912101
0.274075 0.420454 2.3912101
0.28058699 0.42043701 2.3912101
0.28778601 0.42142099 2.39691
0.29431301 0.42140299 2.39691
0.30119899 0.42188501 2.39976
0.308099 0.42236999 2.4026101
0.31501299 0.422851 2.4054599
0.32156 0.422831 2.4054599
0.32810599 0.422811 2.4054599
0.33544499 0.42379501 2.41116
0.34241101 0.42427599 2.41401
0.350214 0.425758 2.42256
0.35680699 0.42573801 2.42256
0.36425099 0.42671901 2.4282601
0.370855 0.426696 2.4282601
0.37745801 0.42667601 2.4282601
0.384509 0.42715499 2.4311099
0.39020401 0.42613199 2.42541
0.39679599 0.42610899 2.42541
0.40386099 0.426588 2.4282601
0.41094401 0.42706701 2.4311099
0.41803801 0.42754501 2.43396
0.42514801 0.42802399 2.43681
0.432778 0.42900199 2.4425099
0.43992299 0.429481 2.4453599
0.44708601 0.429957 2.44821
0.45320499 0.429432 2.4453599
0.460917 0.43041 2.4510601
0.467572 0.43038699 2.4510601
0.47532699 0.43136501 2.4567599
0.481996 0.431339 2.4567599
0.48923001 0.431815 2.45961
0.49532899 0.43129 2.4567599
0.50141102 0.43076599 2.4539101
0.50865901 0.43124199 2.4567599
0.51651597 0.43222001 2.46246
0.52319402 0.43219399 2.46246
0.52925903 0.431669 2.45961
0.53530699 0.43114501 2.4567599
0.54196697 0.431122 2.4567599
0.54799199 0.43059799 2.4539101
0.55464202 0.430572 2.4539101
0.56129402 0.430549 2.4539101
0.56860399 0.431025 2.4567599
0.57392502 0.42999899 2.4510601
0.58056599 0.429977 2.4510601
0.58515698 0.42845199 2.4425099
0.58901399 0.42642799 2.4311099
-0.38143101 0.42451599 2.4539101
-0.379547 0.429959 2.48527
-0.372787 0.42998201 2.48527
-0.366027 0.430002 2.48527
-0.35926601 0.43002501 2.48527
-0.35290799 0.430538 2.4881201
-0.346136 0.430558 2.4881201
-0.339755 0.43107101 2.4909699
-0.33335599 0.431584 2.49382
-0.32656699 0.431604 2.49382
-0.32014301 0.43211699 2.49667
-0.31334299 0.43213701 2.49667
-0.306896 0.43264699 2.4995201
-0.300087 0.43266699 2.4995201
-0.29327801 0.432684 2.4995201
-0.286145 0.432208 2.49667
-0.279342 0.432228 2.49667
-0.27284899 0.43273801 2.4995201
-0.265735 0.432262 2.49667
-0.25833899 0.43129 2.4909699
-0.25097501 0.43031901 2.48527
-0.24420001 0.430336 2.48527
-0.23769601 0.430843 2.4881201
-0.230648 0.43036401 2.48527
-0.22361401 0.429885 2.48242
-0.21659701 0.429407 2.4795599
-0.209592 0.42892799 2.4767101
-0.202603 0.42844599 2.47386
-0.195857 0.42846 2.47386
-0.189108 0.42847201 2.47386
-0.18193699 0.427497 2.4681599
-0.174798 0.42652199 2.46246
-0.167302 0.424559 2.4510601
-0.16042501 0.424077 2.44821
-0.153565 0.423592 2.4453599
-0.14689299 0.423601 2.4453599
-0.140218 0.423612 2.4453599
-0.133386 0.42312801 2.4425099
-0.126275 0.42165399 2.43396
-0.11935 0.42067701 2.4282601
-0.11272 0.42068201 2.4282601
-0.106217 0.421184 2.4311099
-0.099578999 0.421193 2.4311099
-0.092721 0.42020899 2.42541
-0.085997999 0.41972199 2.42256
-0.079195 0.418742 2.4168601
-0.072338 0.417265 2.4083099
-0.065762997 0.41726801 2.4083099
-0.059113 0.41678101 2.4054599
-0.052544001 0.41678399 2.4054599
-0.045975 0.41678599 2.4054599
-0.039310999 0.41580299 2.39976
-0.032678999 0.41481701 2.3940599
-0.026109001 0.41432399 2.3912101
-0.019532001 0.41333801 2.38551
-0.013045 0.414327 2.3912101
-0.006507 0.41383401 2.38836
1.7e-05 0.41383401 2.38836
0.0065319999 0.41334099 2.38551
0.013048 0.41334099 2.38551
0.019588999 0.41383401 2.38836
0.026144 0.41432399 2.3912101
0.032713 0.41481701 2.3940599
0.039299998 0.41530699 2.39691
0.045846 0.41530401 2.39691
0.052453 0.415795 2.39976
0.058867998 0.414803 2.3940599
0.065563001 0.415786 2.39976
0.072200999 0.41627601 2.4026101
0.078950003 0.41725901 2.4083099
0.085424997 0.41676101 2.4054599
0.091775 0.415766 2.39976
0.098560996 0.41674599 2.4054599
0.105128 0.41674101 2.4054599
0.111563 0.41623899 2.4026101
0.117985 0.41573799 2.39976
0.124386 0.415236 2.39691
0.130776 0.41473401 2.3940599
0.13681801 0.41324401 2.38551
0.143159 0.41273901 2.3826599
0.149663 0.41273099 2.3826599
0.15597899 0.41222599 2.3798101
0.162471 0.412218 2.3798101
0.168764 0.411713 2.37696
0.175037 0.41120601 2.37411
0.181732 0.411688 2.37696
0.18799099 0.411183 2.37411
0.194469 0.411172 2.37411
0.200945 0.41115701 2.37411
0.20791601 0.41213199 2.3798101
0.213892 0.41113201 2.37411
0.220103 0.41062501 2.3712599
0.22629599 0.410117 2.3684101
0.23331299 0.411089 2.37411
0.240358 0.41206101 2.3798101
0.247141 0.41253999 2.3826599
0.253939 0.41301599 2.38551
0.26075 0.413495 2.38836
0.26757601 0.41396999 2.3912101
0.27409199 0.41395301 2.3912101
0.28060701 0.41393599 2.3912101
0.287119 0.413919 2.3912101
0.29433 0.41488799 2.39691
0.30085999 0.41487101 2.39691
0.30811599 0.41584 2.4026101
0.31503001 0.41631299 2.4054599
0.32157999 0.416293 2.4054599
0.32812601 0.41627601 2.4054599
0.335069 0.416749 2.4083099
0.34162101 0.416729 2.4083099
0.34900001 0.417696 2.41401
0.355986 0.41816899 2.4168601
0.36341599 0.419135 2.42256
0.37000501 0.419112 2.42256
0.37703601 0.41958499 2.42541
0.38363099 0.41956201 2.42541
0.39022401 0.41954201 2.42541
0.39635101 0.419027 2.42256
0.403411 0.41949999 2.42541
0.41096401 0.420463 2.4311099
0.41806 0.42093301 2.43396
0.42517099 0.42140299 2.43681
0.43178901 0.421381 2.43681
0.43943599 0.422344 2.4425099
0.44659001 0.42281401 2.4453599
0.453758 0.423282 2.44821
0.461476 0.424245 2.4539101
0.46813899 0.42422199 2.4539101
0.47424701 0.423704 2.4510601
0.48089901 0.42368099 2.4510601
0.487551 0.42365801 2.4510601
0.494203 0.423632 2.4510601
0.50143403 0.42410299 2.4539101
0.50809097 0.424077 2.4539101
0.51594299 0.42504001 2.45961
0.522008 0.424521 2.4567599
0.52744299 0.423513 2.4510601
0.53408998 0.42348999 2.4510601
0.540106 0.42297399 2.44821
0.54674399 0.422948 2.44821
0.553379 0.422925 2.44821
0.56001401 0.42289999 2.44821
0.56664902 0.42287701 2.44821
0.57328099 0.422851 2.44821
0.57924098 0.422335 2.4453599
0.584499 0.42132899 2.4396601
0.58834702 0.419337 2.4282601
-0.37869799 0.422236 2.4795599
-0.37152401 0.42177099 2.4767101
-0.36520901 0.42227799 2.4795599
-0.35887301 0.42278299 2.48242
-0.35292801 0.42377499 2.4881201
-0.346156 0.42379501 2.4881201
-0.33938399 0.42381501 2.4881201
-0.33299401 0.42432201 2.4909699
-0.32658699 0.424826 2.49382
-0.31979501 0.42484599 2.49382
-0.313007 0.42486301 2.49382
-0.30621499 0.42488301 2.49382
-0.29907799 0.42441601 2.4909699
-0.292629 0.424918 2.49382
-0.28550899 0.42445001 2.4909699
-0.279039 0.42495501 2.49382
-0.271934 0.42448401 2.4909699
-0.26544699 0.42498901 2.49382
-0.258356 0.424519 2.4909699
-0.250992 0.42356399 2.48527
-0.244214 0.42357799 2.48527
-0.23744 0.423592 2.48527
-0.23013499 0.422638 2.4795599
-0.223115 0.42216399 2.4767101
-0.215865 0.42120701 2.47101
-0.209124 0.42122099 2.47101
-0.20191599 0.42026299 2.4653101
-0.19519299 0.420275 2.4653101
-0.188683 0.42077401 2.4681599
-0.181741 0.42030099 2.4653101
-0.17440499 0.41885301 2.4567599
-0.16731399 0.41789201 2.4510601
-0.160436 0.41741899 2.44821
-0.153576 0.41694301 2.4453599
-0.146901 0.41695201 2.4453599
-0.140227 0.41696 2.4453599
-0.133552 0.41697201 2.4453599
-0.126136 0.41454899 2.4311099
-0.119219 0.41358599 2.42541
-0.112729 0.41407901 2.4282601
-0.1061 0.414087 2.4282601
-0.099350996 0.413609 2.42541
-0.092402004 0.412155 2.4168601
-0.085598998 0.41118899 2.41116
-0.078827001 0.41022301 2.4054599
-0.072172001 0.40974101 2.4026101
-0.065531999 0.40925899 2.39976
-0.058979001 0.40926501 2.39976
-0.052423999 0.40926799 2.39976
-0.045814998 0.408786 2.39691
-0.039220002 0.40830201 2.3940599
-0.032682002 0.40830499 2.3940599
-0.026109001 0.40781999 2.3912101
-0.019554 0.407336 2.38836
-0.013031 0.40733799 2.38836
-0.0064980001 0.40685099 2.38551
1.7e-05 0.40685099 2.38551
0.0065179998 0.40587899 2.3798101
0.013033 0.40636599 2.3826599
0.019543 0.40636399 2.3826599
0.026081 0.40684801 2.38551
0.032559 0.40636101 2.3826599
0.039159998 0.40733001 2.38836
0.045683999 0.407327 2.38836
0.052333001 0.40829599 2.3940599
0.058803 0.40780601 2.3912101
0.065408997 0.40828699 2.3940599
0.072035998 0.40876901 2.39691
0.078768 0.409738 2.4026101
0.085327998 0.40973201 2.4026101
0.091889001 0.40972701 2.4026101
0.098449998 0.40971801 2.4026101
0.104763 0.408741 2.39691
0.111176 0.40824801 2.3940599
0.117571 0.407754 2.3912101
0.123804 0.40677401 2.38551
0.13016 0.40627801 2.3826599
0.136501 0.40578499 2.3798101
0.14282601 0.40528899 2.37696
0.14913601 0.40479299 2.37411
0.155614 0.40478501 2.37411
0.162092 0.404773 2.37411
0.168166 0.40379 2.3684101
0.174419 0.403294 2.3655601
0.180874 0.403283 2.3655601
0.187102 0.40278399 2.36271
0.19377901 0.40325701 2.3655601
0.20047399 0.40373001 2.3684101
0.207682 0.405175 2.37696
0.213907 0.40467599 2.37411
0.220117 0.40417799 2.3712599
0.226037 0.40319201 2.3655601
0.23304801 0.404149 2.3712599
0.240087 0.40510401 2.37696
0.24715599 0.40606201 2.3826599
0.25365099 0.40604401 2.3826599
0.26014301 0.40603 2.3826599
0.26727399 0.40698501 2.38836
0.273128 0.40599599 2.3826599
0.27995399 0.40646601 2.38551
0.28611001 0.40596199 2.3826599
0.29364899 0.407401 2.3912101
0.300161 0.40738401 2.3912101
0.307403 0.40833601 2.39691
0.314677 0.409291 2.4026101
0.32159701 0.40975499 2.4054599
0.32814601 0.409738 2.4054599
0.33469301 0.40971801 2.4054599
0.34123901 0.40969801 2.4054599
0.348607 0.41065001 2.41116
0.35558701 0.41111499 2.41401
0.36215299 0.41109499 2.41401
0.36872 0.411075 2.41401
0.37617001 0.41202399 2.4197099
0.383201 0.41248801 2.42256
0.389788 0.41246599 2.42256
0.39637399 0.41244599 2.42256
0.403431 0.412907 2.42541
0.410505 0.41337201 2.4282601
0.41808301 0.414318 2.43396
0.425194 0.414783 2.43681
0.43181199 0.41475999 2.43681
0.43894601 0.41522199 2.4396601
0.446091 0.415683 2.4425099
0.45378 0.416632 2.44821
0.46042699 0.41660699 2.44821
0.46707299 0.41658401 2.44821
0.473169 0.41607699 2.4453599
0.47980401 0.41605401 2.4453599
0.48757699 0.417 2.4510601
0.49422601 0.41697401 2.4510601
0.500875 0.41695201 2.4510601
0.50752401 0.41692901 2.4510601
0.51537001 0.41787201 2.4567599
0.52082002 0.41688001 2.4510601
0.52746898 0.41685501 2.4510601
0.53287297 0.41586301 2.4453599
0.53950202 0.41584 2.4453599
0.54613101 0.41581401 2.4453599
0.55275798 0.41579199 2.4453599
0.55938703 0.415766 2.4453599
0.56601298 0.41574299 2.4453599
0.57196999 0.415236 2.4425099
0.57858801 0.41521001 2.4425099
0.58384103 0.41421801 2.43681
0.58836901 0.41274199 2.4282601
-0.383688 0.41356599 2.4681599
-0.37828201 0.41501901 2.4767101
-0.37112001 0.414563 2.47386
-0.36438799 0.414583 2.47386
-0.358482 0.41555801 2.4795599
-0.352543 0.416536 2.48527
-0.34657499 0.41751 2.4909699
-0.33940399 0.41705099 2.4881201
-0.33301401 0.41755 2.4909699
-0.325858 0.41709101 2.4881201
-0.31908301 0.41711101 2.4881201
-0.31266701 0.41760701 2.4909699
-0.30588099 0.417624 2.4909699
-0.29909801 0.41764399 2.4909699
-0.29264599 0.41813701 2.49382
-0.28552601 0.417678 2.4909699
-0.27873701 0.417696 2.4909699
-0.27132699 0.41675499 2.48527
-0.26425001 0.41629601 2.48242
-0.25748399 0.41631001 2.48242
-0.25042999 0.415849 2.4795599
-0.243949 0.41634199 2.48242
-0.23691 0.41587999 2.4795599
-0.229619 0.41493699 2.47386
-0.222616 0.41447499 2.47101
-0.215876 0.41448599 2.47101
-0.208896 0.414022 2.4681599
-0.20169701 0.41308099 2.46246
-0.194979 0.413093 2.46246
-0.188262 0.413104 2.46246
-0.18133 0.41264001 2.45961
-0.17421401 0.41169301 2.4539101
-0.16732199 0.411226 2.4510601
-0.160448 0.41075799 2.44821
-0.153585 0.41029099 2.4453599
-0.14673901 0.40982401 2.4425099
-0.140073 0.409832 2.4425099
-0.13325 0.40936199 2.4396601
-0.12599599 0.40745801 2.4282601
-0.119227 0.40698799 2.42541
-0.112604 0.40699601 2.42541
-0.10598 0.407002 2.42541
-0.099126004 0.40605301 2.4197099
-0.092079997 0.40414599 2.4083099
-0.085403003 0.40367299 2.4054599
-0.078739002 0.4032 2.4026101
-0.072093002 0.40272701 2.39976
-0.065380998 0.401775 2.3940599
-0.058910999 0.40226001 2.39691
-0.052363999 0.402262 2.39691
-0.045763999 0.401786 2.3940599
-0.039129 0.40083501 2.38836
-0.032605 0.40083501 2.38836
-0.02605 0.400359 2.38551
-0.019533999 0.400361 2.38551
-0.013016 0.400361 2.38551
-0.0064920001 0.399885 2.3826599
1.7e-05 0.399407 2.3798101
0.0065100002 0.39892799 2.37696
0.013019 0.399407 2.3798101
0.01952 0.39940399 2.3798101
0.026021 0.39940399 2.3798101
0.032444999 0.39844301 2.37411
0.039023001 0.399398 2.3798101
0.045577999 0.399874 2.3826599
0.052209999 0.40082601 2.38836
0.058665998 0.40034401 2.38551
0.065257996 0.40081999 2.38836
0.071868002 0.40129301 2.3912101
0.078584999 0.40224499 2.39691
0.085234001 0.40271801 2.39976
0.091569997 0.40175501 2.3940599
0.098108001 0.40174901 2.3940599
0.104395 0.40078601 2.38836
0.110916 0.400778 2.38836
0.117158 0.39981401 2.3826599
0.123368 0.39885101 2.37696
0.129701 0.39836299 2.37411
0.13602 0.39787599 2.3712599
0.14232101 0.39738899 2.3684101
0.148609 0.39690101 2.3655601
0.155064 0.39689299 2.3655601
0.16151901 0.39688101 2.3655601
0.167772 0.39639401 2.36271
0.17401101 0.395904 2.3598599
0.180666 0.39637101 2.36271
0.187113 0.396357 2.36271
0.19402701 0.39730299 2.3684101
0.200728 0.39776799 2.3712599
0.207693 0.398711 2.37696
0.213149 0.39678499 2.3655601
0.219336 0.396294 2.36271
0.22550599 0.39580101 2.3598599
0.233062 0.397699 2.3712599
0.239814 0.398164 2.37411
0.24658 0.398626 2.37696
0.253061 0.39861101 2.37696
0.259536 0.39859399 2.37696
0.266653 0.399535 2.3826599
0.272818 0.399039 2.3798101
0.279302 0.39902499 2.3798101
0.285786 0.39900801 2.3798101
0.292968 0.39994499 2.38551
0.30017799 0.40088299 2.3912101
0.30741999 0.40182099 2.39691
0.31506699 0.403234 2.4054599
0.32199901 0.403696 2.4083099
0.328163 0.40319699 2.4054599
0.33391801 0.40222201 2.39976
0.340855 0.40268099 2.4026101
0.34739 0.402661 2.4026101
0.35476899 0.40359601 2.4083099
0.36131799 0.40357599 2.4083099
0.36830401 0.404035 2.41116
0.37530601 0.40449101 2.41401
0.38231999 0.40494701 2.4168601
0.38934901 0.40540299 2.4197099
0.39639401 0.405862 2.42256
0.40345401 0.406315 2.42541
0.41100901 0.40724999 2.4311099
0.41810599 0.40770599 2.43396
0.425713 0.408638 2.4396601
0.431835 0.40813899 2.43681
0.43896899 0.40859199 2.4396601
0.44559199 0.40856999 2.4396601
0.452746 0.409026 2.4425099
0.459378 0.40900299 2.4425099
0.46601 0.408977 2.4425099
0.47263899 0.40895399 2.4425099
0.479269 0.408932 2.4425099
0.48646501 0.409385 2.4453599
0.49309999 0.40936199 2.4453599
0.499735 0.40933901 2.4453599
0.50637001 0.409316 2.4453599
0.51360101 0.409769 2.44821
0.51963401 0.40926799 2.4453599
0.52626598 0.40924501 2.4453599
0.53227401 0.40874299 2.4425099
0.53889501 0.408721 2.4425099
0.54551899 0.40869501 2.4425099
0.55213898 0.408672 2.4425099
0.55875701 0.408649 2.4425099
0.56537801 0.40862399 2.4425099
0.57132602 0.40812501 2.4396601
0.57793802 0.40810201 2.4396601
0.583179 0.407125 2.43396
0.58701003 0.405195 2.42256
-0.38459799 0.407794 2.47386
-0.37786901 0.40781701 2.47386
-0.37114 0.407837 2.47386
-0.363989 0.40738699 2.47101
-0.35809201 0.40834701 2.4767101
-0.35175601 0.408838 2.4795599
-0.34580001 0.409798 2.48527
-0.33903599 0.40981799 2.48527
-0.33227 0.40983799 2.48527
-0.325504 0.40985501 2.48527
-0.31873801 0.40987501 2.48527
-0.31196901 0.40989199 2.48527
-0.30555099 0.410382 2.4881201
-0.29843101 0.40992901 2.48527
-0.291996 0.41041601 2.4881201
-0.285216 0.41043401 2.4881201
-0.27811599 0.40998 2.48527
-0.27072299 0.40905699 2.4795599
-0.26366001 0.408604 2.4767101
-0.25720501 0.40908799 2.4795599
-0.25044501 0.409105 2.4795599
-0.243966 0.40959001 2.48242
-0.23692399 0.409134 2.4795599
-0.229633 0.40821001 2.47386
-0.22263101 0.40775201 2.47101
-0.21564201 0.407296 2.4681599
-0.20866799 0.40684 2.4653101
-0.201708 0.40638101 2.46246
-0.19499101 0.40639499 2.46246
-0.188054 0.405936 2.45961
-0.181134 0.40547699 2.4567599
-0.174023 0.40454799 2.4510601
-0.16733401 0.40456 2.4510601
-0.16064399 0.404571 2.4510601
-0.153776 0.404109 2.44821
-0.146579 0.40270701 2.4396601
-0.139753 0.40224499 2.43681
-0.132791 0.40131301 2.4311099
-0.12600499 0.40085199 2.4282601
-0.119233 0.40039 2.42541
-0.112612 0.40039799 2.42541
-0.105738 0.39946401 2.4197099
-0.099013999 0.39899901 2.4168601
-0.092086002 0.397594 2.4083099
-0.085306004 0.39665899 2.4026101
-0.078557 0.395724 2.39691
-0.071924999 0.395257 2.3940599
-0.065306999 0.39479199 2.3912101
-0.058777001 0.394795 2.3912101
-0.052244999 0.39480099 2.3912101
-0.045712002 0.394804 2.3912101
-0.039085999 0.393866 2.38551
-0.032568 0.393866 2.38551
-0.026021 0.393399 2.3826599
-0.019512 0.393399 2.3826599
-0.013002 0.39340201 2.3826599
-0.0064920001 0.39340201 2.3826599
1.7e-05 0.392461 2.37696
0.0065040002 0.39199099 2.37411
0.013005 0.392461 2.37696
0.019475 0.39198801 2.37411
0.025961 0.39198801 2.37411
0.032331001 0.39057401 2.3655601
0.038885999 0.39151201 2.3712599
0.045364998 0.391509 2.3712599
0.052090999 0.39338699 2.3826599
0.058529001 0.392914 2.3798101
0.065107003 0.39338201 2.3826599
0.071702003 0.39384601 2.38551
0.078405999 0.394784 2.3912101
0.084935002 0.39477801 2.3912101
0.091247998 0.39382899 2.38551
0.097645998 0.39335299 2.3826599
0.103905 0.392407 2.37696
0.110395 0.392398 2.37696
0.116605 0.391449 2.3712599
0.122932 0.390973 2.3684101
0.129399 0.39096501 2.3684101
0.135866 0.39095601 2.3684101
0.142159 0.39047399 2.3655601
0.14843801 0.38999599 2.36271
0.154699 0.38951701 2.3598599
0.161337 0.38997599 2.36271
0.16758201 0.389494 2.3598599
0.173601 0.388542 2.3541601
0.180025 0.38853401 2.3541601
0.18689901 0.38946301 2.3598599
0.193571 0.38991901 2.36271
0.200258 0.390378 2.3655601
0.20696101 0.390836 2.3684101
0.212906 0.389882 2.36271
0.21882001 0.38892701 2.3570099
0.224976 0.38844201 2.3541601
0.23251501 0.39030901 2.3655601
0.239252 0.39076501 2.3684101
0.246301 0.391691 2.37411
0.25246799 0.39120701 2.3712599
0.25893199 0.39118999 2.3712599
0.26507401 0.39070499 2.3684101
0.27152699 0.390688 2.3684101
0.27797899 0.39067101 2.3684101
0.285119 0.39159501 2.37411
0.29228401 0.39251801 2.3798101
0.29947999 0.39344099 2.38551
0.30670801 0.394362 2.3912101
0.31359401 0.394815 2.3940599
0.32087299 0.39573601 2.39976
0.32740501 0.39571899 2.39976
0.333938 0.39569899 2.39976
0.34046701 0.395679 2.39976
0.34699899 0.39566201 2.39976
0.35436699 0.396579 2.4054599
0.36133799 0.39703 2.4083099
0.36832401 0.39748001 2.41116
0.37532601 0.39793 2.41401
0.38234001 0.39837801 2.4168601
0.38891301 0.39835799 2.4168601
0.39641699 0.39927599 2.42256
0.40300101 0.39925599 2.42256
0.41006601 0.399703 2.42541
0.41763899 0.400621 2.4311099
0.424741 0.401068 2.43396
0.431858 0.40151599 2.43681
0.43899101 0.401963 2.4396601
0.44561499 0.40193999 2.4396601
0.45171401 0.401447 2.43681
0.45832899 0.40142399 2.43681
0.46494401 0.401402 2.43681
0.472112 0.401849 2.4396601
0.479294 0.40229699 2.4425099
0.487055 0.403211 2.44821
0.493698 0.403189 2.44821
0.499176 0.40222499 2.4425099
0.50521302 0.401732 2.4396601
0.51242602 0.40217999 2.4425099
0.51905298 0.402154 2.4425099
0.52567601 0.40213099 2.4425099
0.53229702 0.40210801 2.4425099
0.538921 0.40208599 2.4425099
0.54490602 0.401593 2.4396601
0.55216199 0.40203699 2.4425099
0.55813003 0.401544 2.4396601
0.56408101 0.40105101 2.43681
0.57068503 0.40102801 2.43681
0.57728499 0.40100601 2.43681
0.58320498 0.40051201 2.43396
0.58772498 0.39908499 2.42541
-0.38550401 0.40199399 2.4795599
-0.37745199 0.40062901 2.47101
-0.37073201 0.40064901 2.47101
-0.36359 0.40020701 2.4681599
-0.35728499 0.40068901 2.47101
-0.35096699 0.401171 2.47386
-0.345027 0.402114 2.4795599
-0.338278 0.402134 2.4795599
-0.33190799 0.40261599 2.48242
-0.325151 0.40263599 2.48242
-0.31839001 0.40265301 2.48242
-0.31163001 0.40267301 2.48242
-0.30487001 0.40268999 2.48242
-0.29810601 0.40270701 2.48242
-0.291343 0.402724 2.48242
-0.284908 0.40320599 2.48527
-0.278133 0.40322301 2.48527
-0.27073699 0.40231401 2.4795599
-0.26337299 0.40140501 2.47386
-0.25633299 0.40095699 2.47101
-0.25017399 0.401898 2.4767101
-0.243701 0.402376 2.4795599
-0.23666701 0.40192899 2.4767101
-0.229913 0.401943 2.4767101
-0.222901 0.40149301 2.47386
-0.215905 0.40104499 2.47101
-0.208682 0.40013301 2.4653101
-0.201489 0.399221 2.45961
-0.194777 0.39923301 2.45961
-0.187848 0.39878201 2.4567599
-0.180934 0.398332 2.4539101
-0.173832 0.39741701 2.44821
-0.167151 0.39742899 2.44821
-0.16028 0.39697599 2.4453599
-0.153605 0.39698699 2.4453599
-0.14641701 0.39560699 2.43681
-0.139437 0.39469001 2.4311099
-0.132489 0.39377499 2.42541
-0.125865 0.393783 2.42541
-0.119102 0.393327 2.42256
-0.112353 0.39287099 2.4197099
-0.105496 0.391954 2.41401
-0.098669998 0.391036 2.4083099
-0.091875002 0.39011499 2.4026101
-0.085109003 0.389195 2.39691
-0.078377001 0.38827699 2.3912101
-0.071845002 0.38828 2.3912101
-0.065234996 0.38782099 2.38836
-0.058708999 0.38782701 2.38836
-0.052122001 0.38736799 2.38551
-0.045607001 0.387371 2.38551
-0.038995001 0.38644701 2.3798101
-0.032453999 0.385986 2.37696
-0.025899 0.38506201 2.3712599
-0.019443 0.38552701 2.37411
-0.012971 0.38599101 2.37696
-0.0064699999 0.38552999 2.37411
1.7e-05 0.385068 2.3712599
0.0064810002 0.38414201 2.3655601
0.012959 0.38460299 2.3684101
0.019429 0.38460299 2.3684101
0.025932999 0.38506201 2.3712599
0.032294001 0.383674 2.36271
0.03875 0.38367099 2.36271
0.045256 0.38413 2.3655601
0.051968001 0.38598001 2.37696
0.058463998 0.38597399 2.37696
0.064956002 0.38597101 2.37696
0.071447998 0.385966 2.37696
0.078129001 0.386886 2.3826599
0.084638998 0.38688299 2.3826599
0.090925999 0.38595101 2.37696
0.097418003 0.38594601 2.37696
0.103785 0.38547501 2.37411
0.110269 0.38547 2.37411
0.116474 0.38453501 2.3684101
0.122644 0.38360301 2.36271
0.129097 0.38359401 2.36271
0.13538399 0.38312399 2.3598599
0.141996 0.38357699 2.36271
0.14809 0.382642 2.3570099
0.15471099 0.38309601 2.3598599
0.16115201 0.383084 2.3598599
0.167593 0.38307601 2.3598599
0.173612 0.38213801 2.3541601
0.17982 0.38166499 2.35131
0.18646 0.38211501 2.3541601
0.19311801 0.382566 2.3570099
0.19978701 0.38301599 2.3598599
0.20622601 0.38300401 2.3598599
0.212405 0.38252801 2.3570099
0.218569 0.38205299 2.3541601
0.22499099 0.382038 2.3541601
0.232529 0.38387701 2.3655601
0.23926701 0.38432401 2.3684101
0.24572501 0.38431001 2.3684101
0.251573 0.383369 2.36271
0.25832501 0.38381699 2.3655601
0.265091 0.38426101 2.3684101
0.271871 0.384709 2.3712599
0.277996 0.38422999 2.3684101
0.285133 0.38513899 2.37411
0.29194999 0.385584 2.37696
0.29914099 0.38648999 2.3826599
0.30599499 0.386935 2.38551
0.31323701 0.387844 2.3912101
0.32051101 0.38874999 2.39691
0.32703501 0.38872999 2.39691
0.33395699 0.389175 2.39976
0.33967799 0.38823101 2.3940599
0.34660599 0.38867301 2.39691
0.35396799 0.389577 2.4026101
0.36135799 0.39048299 2.4083099
0.36877999 0.39138699 2.41401
0.37490499 0.39090499 2.41116
0.38191 0.39134699 2.41401
0.38847399 0.39132401 2.41401
0.39550501 0.39176601 2.4168601
0.402547 0.392207 2.4197099
0.409125 0.392185 2.4197099
0.41668099 0.39308801 2.42541
0.42326999 0.39306501 2.42541
0.43036401 0.393507 2.4282601
0.43696201 0.393484 2.4282601
0.444076 0.39392301 2.4311099
0.450679 0.39390001 2.4311099
0.457816 0.39434201 2.43396
0.46496701 0.39478099 2.43681
0.47213501 0.39522001 2.4396601
0.47931701 0.395659 2.4425099
0.48594299 0.39563599 2.4425099
0.49257299 0.39561 2.4425099
0.49803299 0.39466399 2.43681
0.504646 0.39464101 2.43681
0.51125503 0.394618 2.43681
0.51786399 0.39459601 2.43681
0.52447098 0.394573 2.43681
0.53108001 0.39455 2.43681
0.53831398 0.394986 2.4396601
0.54492903 0.394963 2.4396601
0.55154097 0.394941 2.4396601
0.5575 0.394456 2.43681
0.56344599 0.39397201 2.43396
0.57003802 0.393949 2.43396
0.57663298 0.39392599 2.43396
0.58254403 0.39344099 2.4311099
0.58774799 0.39249501 2.42541
-0.38508201 0.39479801 2.4767101
-0.37660301 0.39300001 2.4653101
-0.37032399 0.39347601 2.4681599
-0.36319101 0.393042 2.4653101
-0.356482 0.393062 2.4653101
-0.34936801 0.39262599 2.46246
-0.34345999 0.39355499 2.4681599
-0.33752 0.39448199 2.47386
-0.33078501 0.39450201 2.47386
-0.32442099 0.39497501 2.4767101
-0.317678 0.39499199 2.4767101
-0.31057501 0.39455599 2.47386
-0.303835 0.394573 2.47386
-0.297097 0.394593 2.47386
-0.29069099 0.39506301 2.4767101
-0.28426901 0.39553601 2.4795599
-0.27751201 0.39555001 2.4795599
-0.27013299 0.394658 2.47386
-0.26308501 0.39421901 2.47101
-0.25635001 0.39423701 2.47101
-0.2499 0.39470401 2.47386
-0.243154 0.394721 2.47386
-0.236408 0.39473501 2.47386
-0.229397 0.39429399 2.47101
-0.22239999 0.393852 2.4681599
-0.215169 0.392957 2.46246
-0.20796999 0.392059 2.4567599
-0.201033 0.391617 2.4539101
-0.194563 0.39208499 2.4567599
-0.18786 0.39209601 2.4567599
-0.18094601 0.39165401 2.4539101
-0.173843 0.39075401 2.44821
-0.16677199 0.38985601 2.4425099
-0.159918 0.389411 2.4396601
-0.153257 0.38942 2.4396601
-0.14642499 0.38897499 2.43681
-0.13944601 0.38807499 2.4311099
-0.132497 0.38717401 2.42541
-0.125874 0.38718301 2.42541
-0.118971 0.38627899 2.4197099
-0.112227 0.38583201 2.4168601
-0.105131 0.38401899 2.4054599
-0.098444 0.38357201 2.4026101
-0.091660999 0.38266799 2.39691
-0.084812 0.381309 2.38836
-0.078194998 0.380858 2.38551
-0.071676999 0.38086101 2.38551
-0.065160997 0.380867 2.38551
-0.058504 0.37996101 2.3798101
-0.051876999 0.37905401 2.37411
-0.045389999 0.37905699 2.37411
-0.038858 0.37860399 2.3712599
-0.03238 0.378607 2.3712599
-0.025867 0.37815401 2.3684101
-0.019398 0.37815601 2.3684101
-0.012942 0.37861201 2.3712599
-0.006455 0.37815601 2.3684101
1.7e-05 0.376791 2.3598599
0.0064500002 0.375882 2.3541601
0.012914 0.376791 2.3598599
0.019361001 0.376791 2.3598599
0.025838999 0.377244 2.36271
0.032177001 0.37587601 2.3541601
0.038704 0.37678599 2.3598599
0.045258999 0.37769201 2.3655601
0.051849 0.378598 2.3712599
0.058465999 0.37950501 2.37696
0.064882003 0.37904599 2.37411
0.071369 0.37904301 2.37411
0.077761002 0.37858099 2.3712599
0.084137 0.378122 2.3684101
0.090498 0.37766099 2.3655601
0.096960001 0.377655 2.3655601
0.103421 0.37764901 2.3655601
0.109748 0.37718701 2.36271
0.116061 0.376726 2.3598599
0.122357 0.376261 2.3570099
0.128949 0.37670901 2.3598599
0.135065 0.37579101 2.3541601
0.141663 0.37623799 2.3570099
0.147919 0.375774 2.3541601
0.154534 0.37621799 2.3570099
0.16096701 0.37621 2.3570099
0.16699401 0.37528899 2.35131
0.17320199 0.37482199 2.34846
0.17939501 0.37435701 2.3456099
0.186022 0.37480199 2.34846
0.19242799 0.37478799 2.34846
0.198835 0.37477601 2.34846
0.20548999 0.375218 2.35131
0.212419 0.37611601 2.3570099
0.218584 0.37564799 2.3541601
0.22500201 0.37563401 2.3541601
0.23142301 0.37562001 2.3541601
0.238129 0.37606201 2.3570099
0.244853 0.37650099 2.3598599
0.25128499 0.376486 2.3598599
0.25802901 0.37692499 2.36271
0.264148 0.37645501 2.3598599
0.27057999 0.376441 2.3598599
0.27734399 0.37687999 2.36271
0.284466 0.377772 2.3684101
0.29161999 0.37866399 2.37411
0.29844299 0.379103 2.37696
0.30528301 0.37953901 2.3798101
0.312134 0.37997499 2.3826599
0.31862399 0.379958 2.3826599
0.32588601 0.38084701 2.38836
0.33318201 0.38173899 2.3940599
0.339293 0.381266 2.3912101
0.34621301 0.38170201 2.3940599
0.353147 0.382135 2.39691
0.36095101 0.38348001 2.4054599
0.368366 0.38437 2.41116
0.375366 0.384803 2.41401
0.381933 0.384783 2.41401
0.38849699 0.384763 2.41401
0.39505699 0.38474 2.41401
0.40162101 0.38472 2.41401
0.408182 0.3847 2.41401
0.415723 0.38558701 2.4197099
0.42229599 0.385564 2.4197099
0.42988199 0.38644999 2.42541
0.43646899 0.38643 2.42541
0.44409901 0.387317 2.4311099
0.45070201 0.38729399 2.4311099
0.45783901 0.38772401 2.43396
0.464448 0.387701 2.43396
0.471605 0.38813499 2.43681
0.478778 0.388565 2.4396601
0.48539901 0.388542 2.4396601
0.491447 0.38806599 2.43681
0.497475 0.38758999 2.43396
0.50407797 0.38756701 2.43396
0.51067901 0.38754499 2.43396
0.51727998 0.387519 2.43396
0.52388102 0.38749599 2.43396
0.53048199 0.38747299 2.43396
0.537709 0.38790399 2.43681
0.54367697 0.38742799 2.43396
0.55027503 0.38740501 2.43396
0.55622101 0.38692901 2.4311099
0.56346798 0.38735899 2.43396
0.56939399 0.38688299 2.4311099
0.57530499 0.38640499 2.4282601
0.58188301 0.38638201 2.4282601
0.58708102 0.38545299 2.42256
-0.39229 0.38848799 2.4795599
-0.38377401 0.386724 2.4681599
-0.375754 0.38540399 2.45961
-0.36948901 0.385869 2.46246
-0.36278901 0.38588899 2.46246
-0.356502 0.386356 2.4653101
-0.34979299 0.38637599 2.4653101
-0.34308299 0.38639301 2.4653101
-0.33715001 0.387308 2.47101
-0.33004099 0.38687801 2.4681599
-0.32369399 0.38734499 2.47101
-0.31696501 0.387362 2.47101
-0.310233 0.38737899 2.47101
-0.30350399 0.38739601 2.47101
-0.29677299 0.38741401 2.47101
-0.290041 0.387431 2.47101
-0.28363401 0.38789499 2.47386
-0.27689001 0.38791201 2.47386
-0.26983699 0.38748199 2.47101
-0.262797 0.38704899 2.4681599
-0.25606799 0.38706601 2.4681599
-0.249339 0.38708001 2.4681599
-0.24260999 0.38709399 2.4681599
-0.235607 0.38666099 2.4653101
-0.228884 0.386675 2.4653101
-0.221645 0.385795 2.45961
-0.21468499 0.38536099 2.4567599
-0.2075 0.38448101 2.4510601
-0.200813 0.38449201 2.4510601
-0.19434901 0.384951 2.4539101
-0.187435 0.384518 2.4510601
-0.180535 0.38408199 2.44821
-0.17324699 0.38275099 2.4396601
-0.166199 0.38186699 2.43396
-0.15955301 0.38187599 2.43396
-0.152909 0.38188699 2.43396
-0.146263 0.38189599 2.43396
-0.139292 0.38101199 2.4282601
-0.132349 0.380126 2.42256
-0.12543701 0.37923899 2.4168601
-0.118697 0.37879801 2.41401
-0.111706 0.377464 2.4054599
-0.104763 0.37613001 2.39691
-0.097983003 0.37524101 2.3912101
-0.091342002 0.37480199 2.38836
-0.084615998 0.37391299 2.3826599
-0.078011997 0.37347099 2.3798101
-0.071425997 0.37302601 2.37696
-0.064929999 0.373032 2.37696
-0.058366999 0.372587 2.37411
-0.051755 0.37169799 2.3684101
-0.045285001 0.371701 2.3684101
-0.038720999 0.37080899 2.36271
-0.032263 0.370812 2.36271
-0.025807001 0.370812 2.36271
-0.019375 0.37126201 2.3655601
-0.012911 0.37126201 2.3655601
-0.0064329999 0.37036699 2.3598599
1.7e-05 0.369028 2.35131
0.0064269998 0.36813301 2.3456099
0.012868 0.36902499 2.35131
0.019315001 0.369472 2.3541601
0.025748 0.36946899 2.3541601
0.032140002 0.36902201 2.35131
0.038658001 0.369914 2.3570099
0.045208 0.37080601 2.36271
0.051789001 0.37169799 2.3684101
0.058329999 0.37213999 2.3712599
0.064808004 0.37213701 2.3712599
0.071200997 0.37168401 2.3684101
0.077390999 0.37033901 2.3598599
0.083838001 0.37033299 2.3598599
0.090285003 0.370327 2.3598599
0.096731 0.37032199 2.3598599
0.103053 0.36986801 2.3570099
0.109491 0.369863 2.3570099
0.115927 0.369854 2.3570099
0.122365 0.36984801 2.3570099
0.128801 0.36984 2.3570099
0.135074 0.36938399 2.3541601
0.14133 0.36892799 2.35131
0.147751 0.36891899 2.35131
0.15416899 0.36890799 2.35131
0.160394 0.36845201 2.34846
0.166601 0.36799601 2.3456099
0.172794 0.36753699 2.3427601
0.179187 0.36752599 2.3427601
0.18580499 0.367962 2.3456099
0.192206 0.36794999 2.3456099
0.198607 0.367939 2.3456099
0.205254 0.368375 2.34846
0.211917 0.368808 2.35131
0.218595 0.369241 2.3541601
0.22474501 0.368783 2.35131
0.231158 0.36876801 2.35131
0.23756801 0.368754 2.35131
0.24427401 0.369187 2.3541601
0.25099799 0.369618 2.3570099
0.257422 0.36960301 2.3570099
0.26352599 0.369142 2.3541601
0.26994199 0.36912701 2.3541601
0.276357 0.36910999 2.3541601
0.28345701 0.36998799 2.3598599
0.29058501 0.370866 2.3655601
0.29810101 0.372188 2.37411
0.30456799 0.37217101 2.37411
