# .PCD v0.7 - Point Cloud Data file format
VERSION 0.7
FIELDS x y z normal_x normal_y normal_z curvature
SIZE 4 4 4 4 4 4 4
TYPE F F F F F F F
COUNT 1 1 1 1 1 1 1
WIDTH 577
HEIGHT 1
VIEWPOINT 0 0 0 1 0 0 0
POINTS 577
DATA ascii
-0.04566963 0.039690033 0.86382782 -0.15935402 0.6001668 -0.78384072 0.00832274
-0.040139675 0.038810112 0.86060917 -0.17595172 0.59260643 -0.78603977 0.0058461567
-0.035238758 0.038000435 0.85816461 -0.19188654 0.58920157 -0.78487027 0.0028752896
-0.030960873 0.037259407 0.85649943 -0.19882953 0.589221 -0.78312534 0.0018559712
-0.027299613 0.036585391 0.85561866 -0.19964243 0.58804393 -0.78380305 0.0017548036
-0.02305305 0.035852581 0.85392791 -0.19928332 0.57979411 -0.79001576 0.001267227
-0.018823266 0.03512416 0.85222363 -0.19931164 0.57728273 -0.79184568 0.0010215142
-0.014610201 0.034400113 0.85050577 -0.19925925 0.57305408 -0.79492438 0.0012978893
-0.011597157 0.033801362 0.85038376 -0.20154737 0.57097447 -0.79584348 0.0010317134
-0.0080029666 0.033144899 0.8494485 -0.20479241 0.56832653 -0.79690969 0.00080389582
-0.00383389 0.032432377 0.84769487 -0.20949091 0.56601465 -0.79733366 0.0008211055
0.00090390444 0.031665407 0.84511781 -0.21239099 0.56156009 -0.79971272 0.0012181753
0.0044541359 0.03102047 0.84414673 -0.21294302 0.56084704 -0.80006623 0.0011103092
0.0085729361 0.030321106 0.84235215 -0.21279958 0.55868316 -0.80161685 0.0010391999
0.012095839 0.029683329 0.84135896 -0.21306948 0.55758727 -0.80230784 0.0012843903
0.016183197 0.028992198 0.83953881 -0.21770629 0.55474555 -0.80303276 0.0016291643
0.020828784 0.028249361 0.83688676 -0.21502793 0.5472039 -0.80890721 0.0015172916
0.023734629 0.027678698 0.83667761 -0.21452519 0.54743952 -0.80888122 0.0015585663
0.027773738 0.027000204 0.83481818 -0.21375254 0.54278648 -0.81221485 0.001662649
0.031227291 0.026380584 0.83376855 -0.2147772 0.5428493 -0.8119024 0.0021088417
0.035234839 0.025710344 0.83188367 -0.21213773 0.53923196 -0.81500083 0.0020275742
0.038661063 0.025097869 0.83081174 -0.20956801 0.53478473 -0.81858814 0.0016168365
0.042074531 0.024488747 0.82972956 -0.20776877 0.53208339 -0.82080424 0.0017607113
0.046035975 0.023830593 0.82780695 -0.20874095 0.52609146 -0.82441187 0.0019358513
0.049980432 0.023176849 0.82587081 -0.2110121 0.51878226 -0.82845575 0.0020944951
0.053351849 0.022578731 0.82475436 -0.21138664 0.51567447 -0.83029842 0.0021087693
0.056156397 0.0220346 0.82446283 -0.210649 0.51196188 -0.83277977 0.00174346
0.059504539 0.021442577 0.8233276 -0.21287897 0.50993264 -0.83345741 0.0022036808
0.063390136 0.020804264 0.82134336 -0.21409395 0.50672799 -0.83509922 0.0022023197
0.067258894 0.020170346 0.81934553 -0.21362883 0.50256449 -0.83772999 0.0017952863
0.070564896 0.01958935 0.81817585 -0.2108037 0.50222266 -0.83865023 0.0019871017
0.072770566 0.019107595 0.81868333 -0.2072157 0.50415897 -0.83838266 0.0021209309
0.076055348 0.018532157 0.8174966 -0.2060535 0.50228179 -0.8397947 0.0029793065
0.078787893 0.018006891 0.81714642 -0.20127782 0.50195426 -0.8411476 0.0027364811
0.083124608 0.017344847 0.81424326 -0.19962364 0.49250323 -0.84710741 0.001771735
0.085833788 0.016825691 0.81387419 -0.19942485 0.49231732 -0.84726238 0.0014485688
0.089067936 0.0162635 0.81264621 -0.19962963 0.48868519 -0.84931433 0.0012504341
0.091757953 0.015749365 0.81226164 -0.20061737 0.49109715 -0.84768879 0.0018410441
0.095498055 0.015149102 0.81015921 -0.19624785 0.49071208 -0.84893382 0.0021393988
0.099221349 0.014553234 0.808043 -0.19117722 0.48870516 -0.85124522 0.0014119938
0.10240269 0.014004856 0.80677205 -0.18914263 0.48995832 -0.85097939 0.0018600107
0.10504821 0.013502359 0.80635124 -0.19138634 0.49121922 -0.8497498 0.0025620386
0.10768518 0.013002113 0.80592352 -0.19196288 0.49227369 -0.84900934 0.0029342077
0.11135149 0.012421161 0.80376107 -0.20674028 0.49024749 -0.84670883 0.0041018063
0.11396727 0.011926442 0.80331612 -0.21829598 0.49064142 -0.84357452 0.0050642006
0.1165745 0.011433959 0.80286419 -0.24198762 0.49173325 -0.83644515 0.0061506699
0.11866042 0.010983586 0.80327421 -0.24774839 0.4949404 -0.83285952 0.0069460259
0.12176323 0.010455742 0.80193949 -0.19634199 0.49158064 -0.84840918 0.018134216
0.1243448 0.0099699795 0.80146664 -0.1375564 0.49084368 -0.86032009 0.03546286
0.12793085 0.0094099939 0.79923898 -0.078387067 0.48540837 -0.87076652 0.058476262
0.13150007 0.008854419 0.79699755 -0.0087177157 0.47616327 -0.87931365 0.080130532
0.13555485 0.0082660764 0.79386508 0.061444163 0.4440017 -0.89391679 0.098686688
0.14008889 0.0076466203 0.78983653 0.18667409 0.4155761 -0.8901962 0.11037863
0.14260492 0.0071779788 0.78931057 0.28973454 0.37695235 -0.87975049 0.11495367
0.14461637 0.0067470968 0.78965998 0.39691365 0.33828312 -0.85324329 0.11830568
0.14464712 0.0064572841 0.79354221 0.53046286 0.26806235 -0.80420887 0.12788358
0.14616597 0.0060610026 0.79477704 0.6555627 0.19275257 -0.73012614 0.1225695
0.14719462 0.0056986809 0.7968992 0.74444938 0.14004189 -0.65282732 0.11327085
0.14871508 0.0053019822 0.79813522 0.79148895 0.099000208 -0.60311234 0.10203203
0.14926368 0.0049710125 0.80115277 0.82365686 0.075311609 -0.56206548 0.092132457
0.1503039 0.0046056956 0.80328429 0.85304582 0.051067084 -0.51933122 0.078689724
0.15134811 0.0042393506 0.80541891 0.87812495 0.02091364 -0.47797412 0.062317543
0.15143698 0.0039343983 0.80934852 0.88957357 0.0054407837 -0.45675963 0.050449193
0.15201551 0.0035956353 0.81239033 0.90534484 -0.0090428907 -0.42458099 0.034246255
0.15260196 0.003254801 0.81543875 0.91764838 -0.029764149 -0.39627731 0.020840567
0.1527231 0.0029414445 0.81939447 0.92773092 -0.048628736 -0.37006861 0.009972279
0.15427029 0.0025378168 0.82065225 0.93680036 -0.061151054 -0.34447894 0.0047082226
0.15534797 0.0021627396 0.82281429 0.93572736 -0.055529173 -0.34832573 0.0050883079
0.15689671 0.0017587095 0.82407331 0.93348056 -0.049357403 -0.35521564 0.0049623777
0.15751502 0.0014095753 0.82714754 0.92791378 -0.041586846 -0.37046838 0.0044445507
0.15860426 0.0010315031 0.82931882 0.92407864 -0.034356341 -0.38065526 0.0038898541
0.15923637 0.00067877769 0.83240426 0.91962737 -0.026722146 -0.39188218 0.0032337229
0.16033539 0.00029817224 0.83458346 0.91686374 -0.020827487 -0.39865676 0.0036480424
0.16098148 -5.8189034e-05 0.83768022 0.91614717 -0.018746492 -0.40040362 0.0043155132
0.1625452 -0.00046612322 0.83895141 0.91660869 -0.01777653 -0.3993904 0.0041158209
0.163203 -0.00082555413 0.84205794 0.91884887 -0.018015986 -0.39419833 0.0047113779
0.16386896 -0.0011870861 0.8451708 0.92095506 -0.020252343 -0.3891421 0.0046140933
0.16499138 -0.001573801 0.84736907 0.9209339 -0.023562822 -0.38900608 0.0051171849
0.16701096 -0.0020067394 0.84772509 0.92144424 -0.023766469 -0.38778338 0.0048297583
0.1685816 -0.0024164766 0.84900194 0.92055178 -0.024601629 -0.38984534 0.0047199023
0.17015195 -0.0028261244 0.85027868 0.92214745 -0.025759531 -0.38598028 0.0057661873
0.17172211 -0.0032357275 0.85155517 0.92133278 -0.025220647 -0.38795581 0.0055407393
0.17241532 -0.0036043823 0.85469031 0.92453408 -0.031572368 -0.37978959 0.0066547147
0.17268032 -0.0039552301 0.8587631 0.9287644 -0.039178003 -0.36859441 0.0087808575
0.17165482 -0.0042511374 0.86564404 0.93891442 -0.06667234 -0.33763087 0.011562907
-0.067405432 0.040962577 0.87084407 -0.16959019 0.58141243 -0.79573786 0.020317614
-0.062387079 0.040136263 0.86849368 -0.16173427 0.58541393 -0.79443848 0.015797151
-0.057389677 0.039315425 0.8661263 -0.15712325 0.58702213 -0.79417717 0.012656813
-0.053639099 0.03862647 0.86531729 -0.16292153 0.5854798 -0.79414731 0.010472513
-0.048679173 0.037815452 0.86291945 -0.15949853 0.58725905 -0.79352838 0.0090313172
-0.044349 0.037072033 0.86129564 -0.1649556 0.58371264 -0.79502785 0.0078236377
-0.038215056 0.036148205 0.85728014 -0.19303119 0.57557327 -0.79464108 0.0032227063
-0.034529194 0.035476215 0.85641855 -0.19918078 0.57591766 -0.79287195 0.0028256052
-0.030253187 0.034746997 0.85475063 -0.19989803 0.57338345 -0.79452634 0.0018695296
-0.02659452 0.03408213 0.85386705 -0.20082641 0.57188022 -0.79537517 0.0016443216
-0.021751463 0.033301726 0.85137415 -0.20065266 0.56501633 -0.80030942 0.0010113522
-0.018122032 0.032644533 0.85046667 -0.20080367 0.56251216 -0.8020336 0.0010866972
-0.0139108 0.031932294 0.84874606 -0.20053366 0.5593316 -0.80432224 0.0010681654
-0.010308653 0.031282246 0.84781641 -0.2041475 0.5575943 -0.80461949 0.00092411187
-0.0067190826 0.030635498 0.84687668 -0.20836245 0.5558424 -0.80475116 0.00089792698
-0.0031419992 0.029992037 0.84592652 -0.21360362 0.55583578 -0.80338043 0.0012377372
0.0010084212 0.029295728 0.84415656 -0.21456763 0.55327439 -0.80489022 0.0012660886
0.004558146 0.028659418 0.84318441 -0.21555096 0.55284858 -0.80492002 0.0011292022
0.0098408461 0.027861208 0.83976275 -0.21606651 0.54452741 -0.81043518 0.0012715383
0.014518619 0.027124099 0.83713549 -0.21824071 0.54089987 -0.81227976 0.0014817134
0.018020123 0.026500419 0.83612406 -0.21902445 0.53918457 -0.81320852 0.0014329645
0.022084624 0.025826626 0.83428425 -0.21573985 0.53278613 -0.81828803 0.0013305657
0.024985403 0.025262989 0.83407038 -0.21533942 0.53276837 -0.81840515 0.0015150757
0.029020458 0.0245969 0.83220661 -0.21706975 0.52974683 -0.81990808 0.0022191659
0.032469451 0.023986995 0.83115238 -0.21586293 0.52502537 -0.82325673 0.0021145327
0.036473036 0.023329139 0.82926309 -0.21475948 0.52018696 -0.82660991 0.0015351734
0.040459782 0.022675708 0.82736009 -0.21257368 0.51671439 -0.82934839 0.0019599258
0.043303579 0.022127002 0.82709998 -0.21056293 0.517066 -0.82964212 0.0020567882
0.04726091 0.021481268 0.82517302 -0.21023741 0.51242119 -0.83260125 0.0021480753
0.050083548 0.020938128 0.82489562 -0.21062109 0.50910306 -0.83453751 0.0018948659
0.053454578 0.020348638 0.82377809 -0.2097978 0.5032078 -0.83831185 0.0016758398
0.056812972 0.019762486 0.82265019 -0.21293254 0.49854362 -0.84030586 0.0019619421
0.059605867 0.019227117 0.82234877 -0.21539089 0.49877775 -0.83954012 0.0024488037
0.063491613 0.018600136 0.82036364 -0.21658315 0.49291074 -0.84269261 0.0021479202
0.06736064 0.017977536 0.81836474 -0.21732363 0.48913673 -0.84469849 0.0015256099
0.071212709 0.017359346 0.81635225 -0.21353441 0.48939526 -0.84551483 0.0025166792
0.073959112 0.016836166 0.81601292 -0.21020246 0.49015564 -0.84590918 0.0030358916
0.077239394 0.016270444 0.81482166 -0.20626022 0.48640904 -0.84903646 0.0024279391
0.08050704 0.015708059 0.81361991 -0.20208733 0.48413247 -0.85133809 0.0018876771
0.08376199 0.015148968 0.81240803 -0.20205666 0.48053494 -0.85338116 0.0014479017
0.086468101 0.014636368 0.81203598 -0.20264976 0.47898608 -0.85411084 0.0019117733
0.089699745 0.014083385 0.81080514 -0.20368527 0.47863397 -0.85406208 0.0017892213
0.092386782 0.013575763 0.81041741 -0.20329742 0.47940314 -0.85372299 0.0021418659
0.095595121 0.013028905 0.8091675 -0.19879887 0.4796291 -0.85465497 0.0019029824
0.098790795 0.012485325 0.80790752 -0.19600588 0.47996792 -0.85510975 0.0017447829
0.10197377 0.011945099 0.80663699 -0.19303331 0.4795042 -0.85604554 0.0019466795
0.10566771 0.01136829 0.80449587 -0.19643418 0.47734094 -0.85648072 0.0026536512
0.10778013 0.010913894 0.80492717 -0.19590108 0.4769156 -0.85683978 0.0028766636
0.11144659 0.010344282 0.8027637 -0.21023145 0.47566009 -0.85413718 0.0043219524
0.11457878 0.009817332 0.80145198 -0.23303385 0.47805589 -0.84685171 0.0057908953
0.11769828 0.0092936903 0.80012995 -0.25779885 0.48417875 -0.83612847 0.0067152441
0.11875212 0.0089220703 0.80227268 -0.2460658 0.48404884 -0.83973122 0.0081528481
0.12134337 0.008439526 0.80180722 -0.19161089 0.48325059 -0.85425645 0.019503443
0.1239261 0.0079592168 0.8013348 -0.13575381 0.48589963 -0.86340755 0.037785493
0.12802145 0.0073744953 0.79823399 -0.066703886 0.47110981 -0.87954885 0.064124167
0.13260075 0.0067602247 0.79424065 0.011177778 0.44963259 -0.89314377 0.088844359
0.13665211 0.0061869919 0.79110396 0.086318105 0.42596236 -0.9006139 0.10106909
0.1406824 0.0056192428 0.78795028 0.21465975 0.39055157 -0.89520431 0.1091364
0.1426968 0.0051905364 0.78830177 0.32293341 0.35486957 -0.87737203 0.11405668
0.14470667 0.0047629774 0.78864974 0.45390886 0.29886526 -0.83943224 0.11525306
0.1452283 0.0044335276 0.79164594 0.57564628 0.24459976 -0.78025794 0.12515433
0.14625049 0.0040702224 0.79376298 0.66758943 0.18442044 -0.72132766 0.1191626
0.14678609 0.0037371516 0.79677045 0.736166 0.14900769 -0.66019416 0.11432333
0.14781809 0.0033712834 0.79889554 0.79621375 0.10080175 -0.59655911 0.099969521
0.14836764 0.0030345768 0.80191445 0.82772034 0.074550688 -0.55616671 0.089749925
0.14940953 0.0026661605 0.80404741 0.85617578 0.053111739 -0.51394761 0.07709454
0.15045524 0.0022967458 0.80618358 0.87803006 0.024446299 -0.47798085 0.061578836
0.15054452 0.0019834042 0.81011426 0.89256483 0.0063215075 -0.45087492 0.047374435
0.15160209 0.0016109049 0.81226009 0.90942907 -0.012830323 -0.41566119 0.030542765
0.15266356 0.0012373924 0.81440908 0.91974264 -0.032180209 -0.39120072 0.017989703
0.15278095 0.00091674924 0.81836265 0.93025166 -0.049779322 -0.36353001 0.008917816
0.15338233 0.00056654215 0.82142371 0.93582511 -0.057437789 -0.34775317 0.0047808187
0.15446162 0.00018841028 0.82358712 0.93377084 -0.049409945 -0.35444432 0.0055039418
0.15648013 -0.00024132431 0.82394212 0.9321472 -0.046050433 -0.35913944 0.0056278743
0.15709734 -0.00059561431 0.82701588 0.92654914 -0.035869692 -0.37445986 0.004579227
0.15772244 -0.00095197558 0.83009613 0.92184597 -0.026943266 -0.38661882 0.0041561709
0.15881708 -0.0013341159 0.83227217 0.91814327 -0.020997994 -0.39569193 0.0031846084
0.15945616 -0.0016941279 0.83536381 0.91705817 -0.017880782 -0.39835253 0.0047784708
0.16101801 -0.0021014065 0.8366335 0.91566318 -0.015199246 -0.40165919 0.004064322
0.16212431 -0.0024865866 0.83881897 0.91674197 -0.01436734 -0.39922166 0.0045066797
0.16278106 -0.0028511882 0.84192502 0.9176113 -0.015958428 -0.39715859 0.0048025311
0.16389716 -0.0032389015 0.84411836 0.921161 -0.019185474 -0.38870862 0.0054886085
0.16501713 -0.0036276132 0.84631485 0.92207795 -0.019893778 -0.386493 0.0056785122
0.16658801 -0.004037261 0.84759182 0.92172122 -0.019497279 -0.38736278 0.0057813339
0.16815865 -0.0044468343 0.84886879 0.92240375 -0.02344363 -0.38551503 0.005589202
0.16972911 -0.004856348 0.85014546 0.92164302 -0.024408888 -0.38727051 0.0051891645
0.17129931 -0.0052658021 0.85142201 0.92224294 -0.027164739 -0.3856557 0.0050095529
0.17155248 -0.0056218356 0.85548604 0.92586762 -0.033772215 -0.3763358 0.0067108902
0.1718179 -0.005981043 0.85955983 0.933065 -0.048176486 -0.35646719 0.0096373446
0.17035639 -0.0062766075 0.867374 0.94539088 -0.081735268 -0.31552431 0.01401903
-0.06668216 0.038355783 0.8691169 -0.17072913 0.5643037 -0.80772084 0.018804893
-0.060429737 0.037420668 0.86519575 -0.17283753 0.56736553 -0.80512339 0.013945747
-0.056053489 0.036676466 0.86360824 -0.16511647 0.56929499 -0.80538172 0.011827895
-0.051080361 0.035876095 0.86121976 -0.1745474 0.56704974 -0.80497694 0.0096042044
-0.046739623 0.0351412 0.8596034 -0.16627884 0.56661618 -0.80703008 0.0084102293
-0.041806012 0.034351185 0.85718274 -0.1809721 0.56030965 -0.80827111 0.0066849813
-0.037500679 0.03362558 0.85553759 -0.20233078 0.56280178 -0.8014465 0.0029080713
-0.033817306 0.032962717 0.85467321 -0.20535818 0.5635711 -0.80013484 0.0023737564
-0.02954334 0.032245331 0.85300255 -0.20464855 0.55828118 -0.80401558 0.0019230159
-0.025887132 0.031589597 0.85211605 -0.20367435 0.55716968 -0.80503339 0.0016750975
-0.022243485 0.030937165 0.85121936 -0.20303951 0.55411446 -0.80729932 0.0012579839
-0.018015459 0.030231833 0.84951138 -0.20349859 0.54857922 -0.81095582 0.0012889211
-0.013804138 0.029530883 0.84778976 -0.20387316 0.54665327 -0.81216139 0.0014223248
-0.0096096098 0.028834336 0.84605461 -0.20955586 0.54305947 -0.81312531 0.001045296
-0.0054318011 0.028142169 0.84430575 -0.21239921 0.54165339 -0.81332541 0.0010438832
-0.0018593669 0.027508423 0.84335119 -0.21661669 0.54040819 -0.81304133 0.0015740198
0.00228706 0.026824489 0.84157681 -0.21902715 0.53564483 -0.81554389 0.0016385609
0.0058322549 0.026197888 0.84059995 -0.21812829 0.53606313 -0.81550992 0.0011691231
0.010529608 0.025469802 0.83798724 -0.22041298 0.53370351 -0.81644273 0.0017331425
0.015206009 0.0247472 0.83535755 -0.22075556 0.52945757 -0.81911033 0.0016418452
0.01870504 0.024132706 0.83434314 -0.21888052 0.52787995 -0.82063031 0.0011506162
0.021615356 0.023572266 0.83413655 -0.21655291 0.5264886 -0.82214034 0.0011153956
0.023943126 0.023064286 0.83474272 -0.21554606 0.52759224 -0.82169729 0.0013457104
0.027982503 0.022408411 0.83288133 -0.21701057 0.52251953 -0.82454824 0.0020740803
0.032005191 0.021756917 0.83100635 -0.21582705 0.51568741 -0.82914728 0.0018612264
0.037146598 0.021012664 0.82746828 -0.21617314 0.50499725 -0.83561176 0.0014725536
0.040565699 0.020419121 0.82638896 -0.21484186 0.5052737 -0.83578795 0.0018455751
0.043972194 0.019828886 0.82529932 -0.21385664 0.50295782 -0.83743584 0.0022063616
0.046804488 0.019288927 0.82502931 -0.21184272 0.50181776 -0.83863091 0.0023058357
0.050187707 0.018704802 0.82392085 -0.21051712 0.49779338 -0.8413586 0.0016034725
0.053000927 0.018169835 0.82363534 -0.21063398 0.49477774 -0.84310633 0.0017567542
0.05636096 0.017591789 0.82250792 -0.21406624 0.49258509 -0.84352565 0.0023483674
0.060261637 0.016972259 0.82053369 -0.21644282 0.48677093 -0.84628987 0.0023826754
0.063594222 0.01640138 0.81938416 -0.21699692 0.48306337 -0.84827006 0.00182089
0.067463279 0.015790135 0.8173843 -0.22002894 0.47854799 -0.85004652 0.0017072989
0.070768535 0.015226439 0.81621242 -0.21683772 0.47831997 -0.85099435 0.0024287973
0.074061096 0.014666051 0.81503022 -0.21229143 0.47824568 -0.85218155 0.0031608997
0.077340931 0.014109015 0.81383771 -0.20788315 0.47445542 -0.85538113 0.0023750102
0.080067396 0.013596818 0.81348145 -0.20379326 0.47284672 -0.85725391 0.0017160657
0.083862692 0.013004869 0.81142169 -0.20603147 0.47071117 -0.85789394 0.0022206581
0.087104559 0.012457773 0.81019831 -0.20621453 0.46985322 -0.85832018 0.0020424654
0.09033376 0.011913985 0.80896461 -0.20840707 0.46886465 -0.8583312 0.002180825
0.093550175 0.011373565 0.80772042 -0.20495579 0.46820086 -0.85952377 0.0021886255
0.096223593 0.010875255 0.80732125 -0.20178232 0.46998814 -0.85929912 0.0017725405
0.098888487 0.010379195 0.80691499 -0.19832379 0.46881849 -0.86074209 0.0013446736
0.10207099 0.009847641 0.80564344 -0.19709249 0.46896133 -0.86094707 0.0020998658
0.10524097 0.009319365 0.80436146 -0.20013557 0.46474162 -0.86253178 0.0031488929
0.10839814 0.0087944269 0.80306929 -0.20447476 0.46143752 -0.86328763 0.0034511099
0.11206269 0.0082367063 0.80090308 -0.22231595 0.46088445 -0.85916305 0.0047377776
0.11519253 0.0077189356 0.79958856 -0.25783557 0.46555084 -0.84663057 0.0069193058
0.11727774 0.0072746128 0.79999751 -0.25878716 0.46783698 -0.84507853 0.0073982845
0.11935872 0.0068314075 0.80040288 -0.23118016 0.47033387 -0.85167009 0.014441582
0.12194693 0.0063554347 0.79993439 -0.18243778 0.47146845 -0.86280584 0.02553368
0.1250363 0.0058482587 0.79858696 -0.12029086 0.47095257 -0.87391859 0.046908692
0.12912822 0.0052786171 0.79548192 -0.05279094 0.45293355 -0.8899799 0.071184061
0.13370472 0.0046821237 0.79148453 0.02678141 0.43107891 -0.90191668 0.092199214
0.13775265 0.0041239709 0.78834373 0.1073463 0.40989545 -0.90579391 0.10088133
0.14077675 0.0036338568 0.78694326 0.24469015 0.3659569 -0.89788771 0.11067923
0.14278966 0.0032084584 0.78729337 0.36435097 0.32478255 -0.87279141 0.11413018
0.14430082 0.0028144419 0.78852189 0.48822844 0.27642888 -0.82778025 0.11863188
0.14482129 0.0024797916 0.79151773 0.60841781 0.22820741 -0.76009822 0.12214003
0.14633608 0.0020848513 0.79274917 0.70138025 0.15970065 -0.6946665 0.11131747
0.14686853 0.0017470717 0.79575461 0.76110595 0.12534173 -0.63640189 0.10756639
0.14789793 0.0013792366 0.79787785 0.80720103 0.08365541 -0.58431888 0.094991043
0.14844435 0.001037851 0.80089468 0.83298218 0.061602328 -0.54986 0.085289314
0.14899874 0.00069439411 0.803918 0.86032212 0.038731962 -0.5082773 0.072168209
0.14956117 0.00034886599 0.80694783 0.87827075 0.022345489 -0.47764149 0.060824651
0.15013158 1.2516975e-06 0.80998421 0.89608246 0.0035679732 -0.44387358 0.043486059
0.15070993 -0.00034843385 0.81302708 0.91201639 -0.018519761 -0.40973568 0.025542423
0.15224952 -0.00074979663 0.81427872 0.92167497 -0.035231821 -0.38635996 0.015685732
0.15283978 -0.0011025667 0.81733108 0.93284923 -0.056262318 -0.35584688 0.005998183
0.15391052 -0.0014811456 0.81948781 0.93533438 -0.056241408 -0.34926581 0.0043986924
0.15451467 -0.0018375367 0.82255167 0.93243051 -0.046741843 -0.35831362 0.0053572394
0.1551269 -0.0021960139 0.8256219 0.92861086 -0.036210798 -0.36928415 0.0054337997
0.15621328 -0.0025786608 0.82779151 0.92430395 -0.029411387 -0.38052261 0.0051349127
0.15730357 -0.002962321 0.82996416 0.92012078 -0.022882503 -0.39096582 0.0045643616
0.15839773 -0.0033469796 0.83214003 0.91721267 -0.017196793 -0.3980267 0.0037427847
0.15949565 -0.0037326217 0.83431894 0.9168824 -0.015811492 -0.39884442 0.0043277969
0.16105559 -0.0041392446 0.83558702 0.91692013 -0.013622375 -0.3988384 0.0052233338
0.16215926 -0.0045263916 0.83777058 0.91564 -0.01269588 -0.4017989 0.004660489
0.16281301 -0.0048956573 0.84087467 0.91783726 -0.015470458 -0.39665541 0.0047947816
0.16347456 -0.0052669793 0.84398514 0.92150587 -0.019235794 -0.38788819 0.006059872
0.16459402 -0.0056582093 0.84618145 0.92307371 -0.01991237 -0.38410735 0.0067627239
0.16661263 -0.0060849637 0.84653622 0.9228071 -0.020220634 -0.38473144 0.0063233981
0.16818127 -0.0064938664 0.84781152 0.92260343 -0.022562172 -0.38508967 0.0054272311
0.16886252 -0.0068702847 0.85093784 0.92289585 -0.023549976 -0.38432908 0.0053196559
0.16999325 -0.0072644651 0.85314351 0.92526108 -0.032053065 -0.37797457 0.0061208322
0.17112792 -0.0076596737 0.85535216 0.92796427 -0.039385207 -0.37058237 0.0077355471
0.17182904 -0.0080412924 0.85849476 0.93246686 -0.046891298 -0.35819939 0.0088926936
-0.069748014 0.036442459 0.86816782 -0.17348279 0.54555583 -0.81992239 0.020722741
-0.064095497 0.035581216 0.86504376 -0.17760497 0.54722083 -0.81792778 0.014995391
-0.058467895 0.034726523 0.8618992 -0.18017316 0.54914355 -0.81607538 0.012134117
-0.054097816 0.033995211 0.86030567 -0.17411458 0.55074239 -0.81631309 0.010608208
-0.049744442 0.033268288 0.85869855 -0.18094216 0.54729944 -0.81714326 0.0087371059
-0.045407653 0.032545716 0.85707784 -0.17999464 0.5486275 -0.81646174 0.0071687759
-0.041697592 0.031884313 0.85623431 -0.19003351 0.54950225 -0.81359363 0.0053370292
-0.036784202 0.031113729 0.85379583 -0.20721284 0.55409354 -0.8062526 0.0023927968
-0.033709168 0.030515701 0.85372257 -0.20720288 0.5514732 -0.80804974 0.002481679
-0.028831244 0.029754423 0.85125518 -0.2062685 0.54645956 -0.81168669 0.0020109033
-0.025177598 0.029107839 0.85036582 -0.20584214 0.54141194 -0.81516993 0.0014761297
-0.020936847 0.028410479 0.84866709 -0.20572263 0.53592598 -0.81881708 0.0017996806
-0.017310321 0.027771033 0.84775549 -0.20632201 0.53368211 -0.82013094 0.0016568373
-0.013100982 0.027081922 0.84603125 -0.207828 0.53241968 -0.82057112 0.0013713822
-0.0095017552 0.026449636 0.8450976 -0.21233846 0.53099173 -0.82034153 0.00088006083
-0.0053237379 0.025768742 0.84334785 -0.21661626 0.52936554 -0.82027406 0.001389122
-0.001162529 0.025092259 0.84158438 -0.22008449 0.52624589 -0.82135743 0.0017715674
0.0029819906 0.024420157 0.83980733 -0.22104396 0.52391285 -0.82259035 0.0014206581
0.0065245628 0.023802735 0.83882773 -0.22163343 0.52307993 -0.82296181 0.0014059203
0.010637641 0.023138881 0.83702511 -0.22401232 0.52186835 -0.8230868 0.0019570622
0.015895635 0.022381075 0.83358008 -0.22081998 0.51657903 -0.8272754 0.0013437998
0.018813461 0.02182436 0.83337909 -0.21937497 0.51600146 -0.82802004 0.0011086846
0.022299498 0.021221794 0.83235329 -0.21865664 0.5149495 -0.82886457 0.0012530162
0.02577281 0.020622551 0.83131731 -0.21715796 0.51189601 -0.83114672 0.0019057546
0.029233634 0.020026609 0.83027107 -0.21744794 0.50846392 -0.83317524 0.0019908261
0.033822715 0.019341052 0.82756883 -0.21699452 0.49974105 -0.83855367 0.0014478087
0.037254006 0.018752843 0.82649857 -0.218577 0.49501574 -0.84094203 0.0016349588
0.041239113 0.018122554 0.82459188 -0.21813491 0.48977062 -0.84412205 0.002045495
0.044078857 0.01758635 0.82432741 -0.21721274 0.48943824 -0.84455246 0.0023129727
0.047472239 0.017008081 0.82322633 -0.21469572 0.48657629 -0.84684658 0.0020677382
0.050853014 0.01643312 0.82211506 -0.21145996 0.48254514 -0.84996176 0.0017593071
0.054221183 0.015861467 0.82099348 -0.21440206 0.47862273 -0.8514412 0.0022041383
0.057576686 0.015293151 0.81986153 -0.21661216 0.47693825 -0.85182697 0.0027064169
0.06147325 0.014686048 0.81788301 -0.21993007 0.46984327 -0.85491401 0.0022020894
0.064801395 0.0141249 0.81672889 -0.21959297 0.46684778 -0.85664004 0.0016105812
0.06756711 0.013608128 0.8164041 -0.22340122 0.46456301 -0.85689747 0.0018626887
0.070871919 0.013053089 0.81523108 -0.2212397 0.46558857 -0.85690159 0.0029967115
0.074709564 0.012461424 0.81320459 -0.21377359 0.46253535 -0.86044288 0.0025647192
0.077987045 0.011913568 0.81200922 -0.20979831 0.46087769 -0.8623088 0.0022233427
0.081251681 0.011369035 0.81080353 -0.20670633 0.45992881 -0.86356127 0.0016205723
0.08450377 0.010827824 0.80958754 -0.20998633 0.45935488 -0.86307526 0.002052038
0.087743133 0.010289952 0.80836129 -0.21067612 0.45851022 -0.86335629 0.0025555899
0.09043473 0.0097926259 0.80797619 -0.21090506 0.45929357 -0.86288381 0.0022756883
0.093117803 0.0092975348 0.80758423 -0.2095266 0.45891163 -0.86342269 0.0020954877
0.095792234 0.0088047087 0.80718535 -0.20363855 0.45966059 -0.86443245 0.0014706538
0.09845829 0.008314088 0.8067795 -0.20071483 0.46163875 -0.86406207 0.0015905434
0.10164255 0.0077906549 0.80550838 -0.19949402 0.45765108 -0.86646283 0.0025388491
0.10533893 0.0072359592 0.80336702 -0.20246957 0.45154372 -0.86897314 0.0032222609
0.10849571 0.0067197084 0.80207354 -0.20777687 0.44988814 -0.86857897 0.0033808171
0.11111924 0.0062402189 0.80163324 -0.21925732 0.44949931 -0.86595422 0.0042357449
0.11373425 0.0057629794 0.80118591 -0.23726359 0.45222592 -0.85976607 0.0058298083
0.11685711 0.0052556098 0.79986495 -0.26631704 0.45616663 -0.84910977 0.0075127985
0.11893857 0.0048152059 0.8002705 -0.23325388 0.4550755 -0.85935968 0.014004028
0.121528 0.004344672 0.79980236 -0.17960016 0.46192381 -0.86854494 0.029903278
0.12461901 0.0038456321 0.79845548 -0.12017366 0.45135471 -0.88421559 0.048021164
0.12922198 0.0032592565 0.79447782 -0.037468135 0.44256365 -0.89595407 0.075965054
0.13430578 0.0026497692 0.78960466 0.037823707 0.41732866 -0.9079681 0.09293671
0.13835233 0.0021061897 0.78646135 0.14887506 0.39197004 -0.90785235 0.10694271
0.14087215 0.0016538501 0.78593659 0.27722767 0.34594056 -0.89636487 0.11269598
0.14238358 0.0012598783 0.78716534 0.38665628 0.31431076 -0.86700964 0.11851369
0.14389479 0.00086598098 0.78839386 0.50219071 0.26519462 -0.8230896 0.11994151
0.14490992 0.0004991293 0.79050577 0.64064121 0.20022994 -0.74127388 0.11916102
0.14494166 0.00018416345 0.79439127 0.69086403 0.17857277 -0.70058459 0.11776919
0.14596874 -0.00018577278 0.7965129 0.75411481 0.12937799 -0.64387298 0.11153283
0.14651021 -0.00053134561 0.79952627 0.79583758 0.094409525 -0.59810495 0.1008379
0.14803454 -0.00092864037 0.80076551 0.8378104 0.057216875 -0.54295492 0.082604818
0.14858788 -0.0012772828 0.80378848 0.86140251 0.037295789 -0.50655186 0.070435777
0.14963251 -0.0016517639 0.8059243 0.8849473 0.0096489508 -0.46559131 0.054246679
0.15019974 -0.0020040274 0.80895859 0.9005686 -0.0075711226 -0.43464816 0.038170204
0.15077502 -0.002358377 0.8119995 0.91514397 -0.026554476 -0.4022519 0.022009041
0.15183535 -0.0027369261 0.81414807 0.92438364 -0.040396877 -0.37931916 0.012413276
0.15242454 -0.0030948967 0.81720024 0.93483281 -0.059633788 -0.350045 0.0044328123
0.15396774 -0.0034970343 0.81845468 0.93404931 -0.05456331 -0.35295156 0.0044537685
0.15456873 -0.0038580745 0.82151651 0.93177933 -0.043694284 -0.3603864 0.0065026516
0.15517783 -0.0042212158 0.82458484 0.92830843 -0.035187859 -0.37014246 0.006348276
0.1557948 -0.0045863986 0.82765955 0.92269832 -0.027622085 -0.38453236 0.0048071556
0.15641987 -0.0049536824 0.83074087 0.91792846 -0.021249902 -0.3961764 0.0043844357
0.15751553 -0.0053414106 0.83291817 0.91620022 -0.016644305 -0.4003751 0.0039899442
0.15907571 -0.0057479441 0.83418655 0.9164204 -0.013299465 -0.39999625 0.0046405545
0.16109413 -0.0061716884 0.83454084 0.91666698 -0.016042747 -0.39932987 0.0045881956
0.16173875 -0.0065440536 0.83763796 0.91580904 -0.012353392 -0.40142435 0.0052100299
0.16239136 -0.0069185048 0.84074175 0.91817558 -0.017758911 -0.39577574 0.0050168694
0.16259956 -0.0072793514 0.84477073 0.92300087 -0.024210045 -0.38403562 0.0061820494
0.1641708 -0.0076887608 0.846048 0.92339212 -0.024629366 -0.38306752 0.0060203806
0.16618997 -0.0081126988 0.84640294 0.92373437 -0.024480524 -0.38225108 0.0066155619
0.16775867 -0.0085214227 0.84767824 0.92448962 -0.024840191 -0.38039723 0.0067547336
0.16843882 -0.0089030415 0.85080421 0.9253878 -0.02904138 -0.3779076 0.0068922504
0.16912705 -0.0092867464 0.85393691 0.92817765 -0.034459326 -0.37053865 0.0074169794
0.16982323 -0.0096725523 0.85707605 0.93123049 -0.041941643 -0.36200956 0.0089515215
0.1705274 -0.010060415 0.86022168 0.93931836 -0.06274911 -0.33725902 0.010227947
-0.066525638 0.033618584 0.86332345 -0.1867255 0.53094405 -0.8265785 0.015558016
-0.060882196 0.032776646 0.86019015 -0.18549548 0.5322364 -0.82602406 0.011778607
-0.055882737 0.031997561 0.85782033 -0.1820302 0.53135723 -0.82735997 0.0099860793
-0.052754447 0.031391166 0.85778987 -0.18164374 0.53786367 -0.82323045 0.0093320161
-0.048405021 0.030676551 0.8561784 -0.18265106 0.53661859 -0.82381988 0.0076696551
-0.044684947 0.030020997 0.85534215 -0.18586616 0.53522086 -0.82400995 0.0069854087
-0.040366784 0.029314607 0.85370517 -0.20413449 0.53874069 -0.81736636 0.0032154727
-0.036673874 0.028666183 0.85284692 -0.21037701 0.54037845 -0.8146978 0.0025037641
-0.032993391 0.028021045 0.85197842 -0.20901862 0.53868198 -0.81616968 0.0024550238
-0.028721184 0.027326748 0.85030407 -0.20481542 0.53288162 -0.82102859 0.0017998643
-0.02446571 0.026636824 0.84861624 -0.20853806 0.52644122 -0.82424003 0.0017907202
-0.02022697 0.025951289 0.84691483 -0.20981684 0.52046996 -0.82770038 0.0020855642
-0.01600495 0.025270164 0.84519976 -0.21004079 0.51926172 -0.82840222 0.0016012024
-0.012395561 0.024643697 0.84427345 -0.21444578 0.51714319 -0.8285988 0.0015011311
-0.0093927085 0.02407033 0.84414101 -0.21655346 0.51790768 -0.82757246 0.0013675876
-0.0058064163 0.023449957 0.84319597 -0.22134475 0.51796854 -0.82626575 0.0016953249
-0.0010531843 0.022735521 0.84062576 -0.22459549 0.51382881 -0.82797164 0.0021379949
0.0030913949 0.022074737 0.83884776 -0.22503567 0.5116452 -0.82920337 0.0016584178
0.0078047812 0.021370746 0.83624524 -0.22874677 0.50817335 -0.83032221 0.0021527326
0.010746896 0.020813361 0.83606327 -0.22851017 0.50972384 -0.82943636 0.0020782487
0.014843225 0.020165212 0.83424604 -0.22556856 0.50624603 -0.83236641 0.0016374124
0.018922865 0.019521452 0.83241522 -0.22205888 0.50268519 -0.83546245 0.001045501
0.022408485 0.018927515 0.83138829 -0.22175993 0.50165266 -0.83616215 0.0015861929
0.027031749 0.018247157 0.82871252 -0.21749972 0.49561518 -0.84086823 0.0018605725
0.030488014 0.017660931 0.82766175 -0.21610384 0.49046338 -0.84424222 0.0013924325
0.034502506 0.017034248 0.82577801 -0.21804629 0.48423558 -0.84733218 0.0014565391
0.037362486 0.016498446 0.82552928 -0.22157592 0.48258504 -0.84735817 0.0018705503
0.040780842 0.015922174 0.82444757 -0.22100917 0.47878608 -0.84965825 0.0021874921
0.044751257 0.015307054 0.822528 -0.21986383 0.47514516 -0.85199589 0.0024851544
0.048142254 0.014737979 0.82142407 -0.21469587 0.47098207 -0.85561752 0.0016690502
0.050959915 0.014213279 0.821141 -0.21277672 0.47133178 -0.85590446 0.0018399061
0.053769082 0.013690829 0.82085103 -0.21436533 0.47210097 -0.8550837 0.0024092775
0.057682723 0.013090611 0.81888521 -0.21841046 0.46342796 -0.8587966 0.0026836216
0.061579525 0.012494817 0.81690568 -0.21988115 0.45760164 -0.86154109 0.0016652918
0.064907134 0.011942342 0.81575036 -0.22254185 0.45429412 -0.86260766 0.0016648165
0.067121744 0.011469916 0.81626379 -0.22519442 0.45501792 -0.8615371 0.002001432
0.070428252 0.010922983 0.81509125 -0.22369106 0.45113713 -0.86396623 0.0026684178
0.074268103 0.010342106 0.81306547 -0.21771947 0.45051444 -0.86581457 0.0023734113
0.078091204 0.009765625 0.81102598 -0.21437398 0.44898653 -0.86744165 0.0023098041
0.081355512 0.0092297494 0.80981916 -0.21037737 0.44970465 -0.86804771 0.0019365739
0.085146964 0.0086615682 0.80775398 -0.21358545 0.44928175 -0.86748314 0.0023927439
0.088383913 0.008132875 0.80652487 -0.21321288 0.44746435 -0.86851364 0.0022152625
0.09107244 0.0076420903 0.80613685 -0.21440256 0.44710034 -0.86840808 0.0019714222
0.094286084 0.0071194917 0.80488878 -0.21021807 0.44685709 -0.86955559 0.0018016682
0.096955478 0.0066337287 0.80448508 -0.20727298 0.44410205 -0.87167156 0.0021952761
0.099616349 0.006150201 0.80407459 -0.20220487 0.44453242 -0.87264198 0.0021435013
0.1022687 0.0056689084 0.80365705 -0.19999805 0.44307676 -0.87389004 0.0027131126
0.10491258 0.0051898509 0.80323261 -0.20219591 0.4413994 -0.87423307 0.0030728637
0.10807103 0.0046817362 0.80193967 -0.21034008 0.43887675 -0.87358129 0.0036641755
0.11069572 0.0042077005 0.80149978 -0.22166643 0.43948218 -0.87047088 0.0043040123
0.11331183 0.0037359148 0.80105281 -0.23578912 0.44145411 -0.86574924 0.0053103538
0.11695343 0.0032069534 0.7988658 -0.26100215 0.44312486 -0.8576237 0.0093521699
0.12006328 0.0027115643 0.79753327 -0.21899827 0.44341993 -0.86914825 0.020938171
0.12264752 0.0022481084 0.79706049 -0.16367927 0.4422861 -0.88181186 0.036344804
0.12522334 0.0017869174 0.79658067 -0.10845354 0.43424472 -0.89424235 0.054417502
0.12982538 0.0012177676 0.79260075 -0.019251049 0.41772276 -0.90837055 0.081497058
0.13490903 0.00062817335 0.78772539 0.061775893 0.41059679 -0.90972203 0.096880563
0.1384497 0.00012560189 0.78545624 0.16730928 0.37088946 -0.91348171 0.10903193
0.1409685 -0.00032071769 0.78493023 0.31191665 0.33172485 -0.89031839 0.11468303
0.14247787 -0.00071403384 0.78615731 0.4286226 0.28951868 -0.85583973 0.11857987
0.14398703 -0.0011072755 0.78738415 0.55088013 0.22979453 -0.80232525 0.11745203
0.14450333 -0.0014518201 0.7903775 0.6527698 0.17335477 -0.73745489 0.11451874
0.14502758 -0.0017984211 0.79337752 0.71175396 0.15166785 -0.6858595 0.11397379
0.14605212 -0.0021703541 0.79549724 0.77434683 0.10253437 -0.62439883 0.10429142
0.14708042 -0.0025432706 0.79762 0.81418359 0.070849046 -0.57626867 0.0909319
0.14762467 -0.0028950572 0.80063617 0.84287441 0.04897932 -0.53587675 0.080141537
0.14866281 -0.0032705069 0.80276704 0.8686018 0.024604283 -0.49489969 0.064389743
0.14922103 -0.0036259145 0.80579448 0.88612509 0.0081451125 -0.46337467 0.051204305
0.14978713 -0.0039833784 0.80882853 0.90332925 -0.0082079265 -0.42886972 0.036123797
0.15036133 -0.0043429136 0.81186891 0.91721469 -0.027681712 -0.39743063 0.018094547
0.15142116 -0.0047239959 0.81401747 0.92710787 -0.045128249 -0.37206796 0.009312219
0.15200925 -0.0050871521 0.81706917 0.93367565 -0.057745293 -0.35343373 0.0040773619
0.15402591 -0.0055075288 0.81742185 0.93313366 -0.053853165 -0.35547382 0.0048794388
0.15462393 -0.0058732331 0.82048154 0.93037915 -0.045278173 -0.36379209 0.0060455096
0.15522972 -0.0062409937 0.82354784 0.92777967 -0.034312449 -0.37154764 0.006565711
0.15584368 -0.0066108555 0.82662064 0.9222371 -0.026399197 -0.38572282 0.0054715676
0.15693083 -0.0069990158 0.82879126 0.91970491 -0.019914985 -0.39210504 0.0056170649
0.15848505 -0.0074038655 0.83005482 0.91749024 -0.018573418 -0.39732447 0.0046368763
0.15911674 -0.0077783316 0.83314204 0.91644055 -0.015420279 -0.399874 0.0049090087
0.16067457 -0.0081841052 0.83440846 0.91613501 -0.015868057 -0.40055579 0.0047876746
0.16177511 -0.0085757375 0.83658999 0.91692555 -0.015948106 -0.39873967 0.0062093036
0.16287959 -0.0089683682 0.83877468 0.91808939 -0.019531462 -0.39589202 0.0057472386
0.16353494 -0.0093489885 0.84188116 0.91926539 -0.021522559 -0.39304966 0.0058919224
0.16464919 -0.0097441673 0.84407389 0.92180407 -0.024493584 -0.38688156 0.0059562051
0.16621605 -0.01015228 0.84534758 0.92413086 -0.026421644 -0.38116175 0.0070942682
0.16778266 -0.010560319 0.84662116 0.92478365 -0.025266379 -0.3796536 0.0072431695
0.16845974 -0.010946587 0.84974521 0.9268412 -0.034019839 -0.37390915 0.0077813505
0.16870219 -0.011324614 0.85380298 0.93256652 -0.043949723 -0.35831305 0.0090132039
0.16895673 -0.011705786 0.8578704 0.93786818 -0.058560167 -0.34201464 0.011328841
0.16878492 -0.012080878 0.8628782 0.94739932 -0.085869223 -0.30831984 0.011615379
-0.07531023 0.032883398 0.8615858 -0.19465268 0.49908185 -0.84440958 0.020530537
-0.070832819 0.031821772 0.86393875 -0.19245951 0.51147246 -0.83746958 0.017584844
-0.064543754 0.030936271 0.86004162 -0.19281596 0.51215464 -0.83697057 0.012743275
-0.059526891 0.030166723 0.85768449 -0.19270198 0.51535749 -0.83502847 0.010610554
-0.05515027 0.029456243 0.85609394 -0.18705824 0.51968181 -0.83363074 0.009398005
-0.05140768 0.028803214 0.85527515 -0.190571 0.52221304 -0.83124983 0.0082551343
-0.047677636 0.028153494 0.85444623 -0.18760124 0.52074564 -0.83284444 0.0075556301
-0.043960035 0.027507059 0.85360712 -0.19771233 0.52465314 -0.82803929 0.0052694296
-0.039643899 0.026812494 0.85196745 -0.21277057 0.52751637 -0.82246912 0.0022469915
-0.035953432 0.026173189 0.85110623 -0.21253815 0.52595729 -0.82352698 0.002261288
-0.031668544 0.025486842 0.84944123 -0.20844612 0.52172935 -0.82725364 0.0018527171
-0.027400374 0.02480489 0.84776253 -0.20718732 0.51316905 -0.83290517 0.0016064619
-0.022546187 0.024078086 0.84527314 -0.210969 0.50765932 -0.8353287 0.0020752097
-0.018313512 0.023405448 0.84356564 -0.21446379 0.50407779 -0.83660686 0.0017978174
-0.014097601 0.022737227 0.84184444 -0.21690562 0.49852479 -0.83930033 0.0018276195
-0.011091411 0.022168651 0.84171408 -0.22098994 0.50062823 -0.83697963 0.0017647264
-0.0080936849 0.021602288 0.84157687 -0.22421023 0.50004369 -0.83647251 0.0020622092
-0.0051043928 0.021038145 0.84143287 -0.22700697 0.50226867 -0.83438253 0.0021446804
0.00023776293 0.020292237 0.83805287 -0.22990111 0.49647927 -0.83705074 0.0018121033
0.0043783784 0.019643798 0.83627045 -0.23134117 0.4971168 -0.83627516 0.0020652593
0.0085021853 0.018999785 0.83447438 -0.2331332 0.49514997 -0.8369441 0.0022897639
0.012025177 0.018404528 0.83347708 -0.23220748 0.49407417 -0.8378368 0.0019084803
0.016117573 0.01776877 0.8316555 -0.22627443 0.48900574 -0.84242105 0.00091991486
0.02019316 0.017137393 0.82982028 -0.22415371 0.48782364 -0.84367251 0.0015753901
0.024251997 0.016510442 0.82797134 -0.22132637 0.48417908 -0.84651369 0.0018035346
0.028294027 0.015887886 0.82610875 -0.21692275 0.47951433 -0.85030025 0.0013387504
0.031745642 0.015311375 0.82505345 -0.21627161 0.47557744 -0.85267389 0.0015824665
0.03575626 0.014697075 0.8231653 -0.22328934 0.46925494 -0.85436612 0.0020107259
0.038041532 0.014208898 0.82373607 -0.22296003 0.46885601 -0.85467118 0.0022114471
0.041457385 0.013641804 0.82265157 -0.22239713 0.46509722 -0.85686886 0.0023811129
0.045425892 0.013038561 0.82072926 -0.22010194 0.45879912 -0.86084765 0.0019964403
0.048814356 0.01247865 0.81962246 -0.21725675 0.4543972 -0.86389983 0.0017726703
0.052190155 0.011922076 0.81850547 -0.21738005 0.45106339 -0.86561418 0.0021803675
0.054994255 0.01140666 0.81821072 -0.22014819 0.4499208 -0.86550921 0.0025802895
0.058903813 0.010818869 0.81624055 -0.22037631 0.44458139 -0.86820596 0.0016930898
0.062241673 0.010272264 0.81509262 -0.22312586 0.44225615 -0.86869115 0.0014021121
0.065014064 0.0097652078 0.81477201 -0.22525108 0.44194674 -0.8683002 0.0014885216
0.067227036 0.0092960894 0.81528407 -0.22553815 0.44287348 -0.86775327 0.0019345322
0.071081877 0.0087226629 0.81326926 -0.22387928 0.43903774 -0.87012869 0.0021947073
0.074373186 0.0081882626 0.81208354 -0.21894339 0.43905896 -0.87137312 0.0016719728
0.078196406 0.0076231211 0.81004316 -0.21451232 0.43877852 -0.87261569 0.0016676547
0.081460387 0.0070959032 0.80883509 -0.21403041 0.43772492 -0.87326276 0.0020675019
0.085251987 0.006539017 0.80676895 -0.21602927 0.43867695 -0.87229228 0.0024301778
0.08848846 0.0060189962 0.80553871 -0.21721739 0.43711638 -0.87278062 0.0019738413
0.091176093 0.0055342019 0.8051492 -0.21658181 0.43627709 -0.87335819 0.0019354961
0.093855143 0.0050516427 0.80475295 -0.21325178 0.43546689 -0.87458128 0.0017423871
0.09705779 0.004540503 0.80349505 -0.20805416 0.43237394 -0.8773632 0.0019652939
0.10077775 0.0040024221 0.80137062 -0.20274313 0.42914951 -0.88018525 0.0025176823
0.10289708 0.0035579503 0.80180639 -0.20223804 0.42948067 -0.88013983 0.0024857826
0.10553783 0.0030854344 0.80137891 -0.20579949 0.4292441 -0.87942946 0.003108413
0.10817015 0.0026151538 0.80094451 -0.21538451 0.42924887 -0.87712884 0.0035675366
0.11027211 0.0021752417 0.80136621 -0.22158639 0.43227112 -0.87409455 0.0040701111
0.11288935 0.0017089248 0.80091959 -0.23861 0.43255872 -0.86945862 0.0053954697
0.11705077 0.001163736 0.79786682 -0.25671327 0.43372011 -0.86370426 0.011541329
0.12016022 0.00067700446 0.79653323 -0.20894195 0.43538421 -0.87566197 0.024861284
0.12274355 0.00021956861 0.79605901 -0.15379433 0.42580914 -0.89164686 0.040889915
0.12531841 -0.00023564696 0.795578 -0.098066658 0.42032945 -0.90205669 0.05889279
0.13043106 -0.00081297755 0.79072422 -0.01328665 0.40859157 -0.91262072 0.083927132
0.13551444 -0.0013826936 0.78584683 0.071520835 0.39440751 -0.9161483 0.095670156
0.13854802 -0.0018495917 0.78445148 0.21208742 0.3459571 -0.91396546 0.11112213
0.14056283 -0.0022666454 0.78480232 0.3188729 0.31863129 -0.89263332 0.11320838
0.14157128 -0.0026371181 0.78690916 0.45087802 0.26990011 -0.85080141 0.12162685
0.14358133 -0.0030529201 0.78725618 0.559596 0.220548 -0.79888117 0.11653778
0.14459342 -0.0034243166 0.78936607 0.66613382 0.16716121 -0.72685826 0.11447854
0.1451146 -0.0037755966 0.79236394 0.73557907 0.12531343 -0.66574776 0.10862142
0.14515102 -0.0041083992 0.79625499 0.78136194 0.095513448 -0.6167258 0.10154065
0.1461809 -0.0044844002 0.79837936 0.81329632 0.066635534 -0.57802141 0.092098802
0.14770323 -0.0048808753 0.79961693 0.85360008 0.030961106 -0.52000821 0.072834663
0.14873883 -0.0052583516 0.80174589 0.87025249 0.017066499 -0.4923104 0.061596066
0.14929378 -0.0056183934 0.80477124 0.89091581 0.0040847752 -0.45415044 0.048043326
0.14937443 -0.00596264 0.80869824 0.90625793 -0.014608501 -0.42247275 0.031558763
0.14994755 -0.0063273907 0.81173837 0.9188866 -0.032993656 -0.39313987 0.016123414
0.15052858 -0.0066941977 0.814785 0.93272924 -0.057011984 -0.35604197 0.0044632973
0.15206999 -0.0070956051 0.81603807 0.93193442 -0.054258294 -0.35854465 0.0039289822
0.15313703 -0.0074812025 0.81819266 0.93075746 -0.048466347 -0.36241102 0.0052343579
0.154208 -0.0078678131 0.82035035 0.92858857 -0.040459685 -0.3688989 0.0062580933
0.15575278 -0.0082700551 0.82160622 0.92741698 -0.035631198 -0.37232822 0.006436443
0.1568293 -0.0086580962 0.82376838 0.92490178 -0.028707001 -0.37912107 0.0069419988
0.15744394 -0.0090336204 0.82684231 0.92087561 -0.021486416 -0.38926432 0.0059829671
0.15806645 -0.0094111711 0.82992268 0.91747552 -0.015856292 -0.39747626 0.0052560312
0.15915877 -0.0098033249 0.83209777 0.91702145 -0.015283739 -0.39854515 0.0053984225
0.16025496 -0.010196447 0.83427602 0.91656715 -0.01648503 -0.3995409 0.0054853265
0.16135493 -0.010590583 0.83645743 0.91643119 -0.015824912 -0.39987969 0.0064710542
0.16245887 -0.010985732 0.83864194 0.91891295 -0.021920823 -0.39385125 0.0071511017
0.16311318 -0.011371553 0.84174806 0.92015713 -0.020614607 -0.39100629 0.0071863504
0.16467822 -0.01177904 0.84302038 0.92172468 -0.021661445 -0.38723963 0.0071682842
0.16624311 -0.012186468 0.84429252 0.92381966 -0.030580733 -0.3816044 0.0081283357
0.16780776 -0.012593836 0.84556437 0.92717683 -0.032365333 -0.37322342 0.0090540014
0.1680364 -0.012976527 0.8496117 0.92886841 -0.0384489 -0.36840904 0.0096495403
0.16872033 -0.013370052 0.85274202 0.93265003 -0.046632122 -0.35775623 0.010041997
0.16808903 -0.013744295 0.85866439 0.94321883 -0.071358301 -0.32441705 0.011750287
-0.075853154 0.030749887 0.85753858 -0.2034265 0.4916119 -0.8467204 0.019800963
-0.07015121 0.029926367 0.85444957 -0.20002785 0.49558714 -0.84521139 0.015665691
-0.072642341 0.029799819 0.86143643 -0.19968073 0.49792007 -0.84392142 0.017638369
-0.068841964 0.029140033 0.86066389 -0.19634265 0.50271946 -0.8418566 0.01495819
-0.06442982 0.028431483 0.85910118 -0.20105965 0.50377119 -0.84011292 0.01216244
-0.05941236 0.027675882 0.85674316 -0.20109296 0.50411075 -0.83990121 0.010264538
-0.054415613 0.026925713 0.85436827 -0.19212055 0.5070802 -0.84021395 0.0088130338
-0.05005762 0.026231423 0.85276151 -0.19420573 0.50557083 -0.840644 0.0072477479
-0.046332166 0.025591366 0.85192794 -0.19978161 0.51268905 -0.83500731 0.005278484
-0.04200545 0.024905302 0.85029584 -0.20775515 0.51483399 -0.83173543 0.0024918518
-0.038918719 0.024321131 0.85023046 -0.21490179 0.51492387 -0.82986188 0.002236462
-0.034621194 0.023642763 0.84857452 -0.21447182 0.50901467 -0.83361018 0.0019499676
-0.030947804 0.023016438 0.84769857 -0.2086647 0.50356978 -0.83837736 0.0013883677
-0.027287036 0.022393435 0.84681243 -0.20782772 0.50039536 -0.84048319 0.0015725727
-0.023035482 0.021727145 0.84511918 -0.21288988 0.49247938 -0.84388506 0.0020728689
-0.019401848 0.021111302 0.84421092 -0.21419087 0.49251801 -0.8435334 0.0019498662
-0.013983279 0.020362265 0.84089154 -0.22103977 0.48561123 -0.84576786 0.001961794
-0.0097838938 0.019709706 0.83915579 -0.22807819 0.4815737 -0.84620756 0.0020759329
-0.0061963201 0.019105963 0.83821017 -0.23135033 0.48118639 -0.84553927 0.0020955305
-0.0038071573 0.018593267 0.8388651 -0.23006453 0.48402587 -0.84426844 0.0018718689
0.00094115734 0.017908409 0.83628821 -0.23588651 0.48303434 -0.84322917 0.0019324303
0.0056685507 0.017229035 0.83369428 -0.23901787 0.48060259 -0.84373677 0.002646052
0.0092016757 0.01663962 0.83270437 -0.2371092 0.47989684 -0.84467643 0.0022605222
0.012137562 0.016095236 0.83251631 -0.23303974 0.47992596 -0.84579164 0.0016430363
0.016230106 0.015470773 0.83069366 -0.23002526 0.47600973 -0.84882456 0.0014225633
0.020886302 0.014810085 0.82804191 -0.22757107 0.47161058 -0.85193598 0.0019172836
0.024364829 0.014235035 0.82700747 -0.22250693 0.47103465 -0.85359079 0.0019012315
0.028406978 0.013623789 0.82514399 -0.21784392 0.46665996 -0.85718876 0.0014691435
0.032432467 0.013016939 0.8232668 -0.22089399 0.46214318 -0.85885358 0.0019359798
0.035868913 0.01245293 0.82219833 -0.22529972 0.45717329 -0.86036783 0.0022420853
0.038722813 0.011930123 0.82194352 -0.22406927 0.4549695 -0.86185592 0.0022128592
0.04156816 0.011409596 0.82168186 -0.22313021 0.45102018 -0.86417228 0.0021480983
0.045536816 0.010817647 0.81975853 -0.22078142 0.44422185 -0.86828715 0.0018251456
0.048924834 0.010266393 0.81865054 -0.21853307 0.43916607 -0.87142223 0.0017249623
0.052862018 0.0096827149 0.81670153 -0.22011477 0.43708166 -0.87207174 0.0020632709
0.05566299 0.0091738403 0.81640387 -0.21869801 0.43813723 -0.87189847 0.0018742614
0.059013128 0.0086325407 0.815265 -0.21973038 0.43525782 -0.87308037 0.0014805894
0.061795086 0.0081286728 0.81495184 -0.22371797 0.43347579 -0.87295431 0.001111695
0.06456852 0.007627055 0.81463164 -0.22517681 0.43424797 -0.87219495 0.0014576874
0.067884773 0.0070946813 0.81346536 -0.22694439 0.4332144 -0.8722508 0.0021246893
0.071737647 0.0065331161 0.81144792 -0.22445449 0.42830661 -0.87531346 0.0020664076
0.075573742 0.0059759766 0.80941677 -0.2204316 0.42558235 -0.87766135 0.0016172661
