# .PCD v0.7 - Point Cloud Data file format
VERSION 0.7
FIELDS x y z
SIZE 4 4 4
TYPE F F F
COUNT 1 1 1
WIDTH 1428
HEIGHT 1
VIEWPOINT 0 0 0 1 0 0 0
POINTS 1428
DATA ascii
0.073523983 3.663589 -0.23790646
0.066764317 3.6637044 -0.23772764
0.060001656 3.6638198 -0.23754883
0.053109385 3.6647296 -0.24018335
0.046481237 3.6640456 -0.23719168
0.039718524 3.6641579 -0.2370131
0.03295882 3.6642714 -0.23683429
0.026199088 3.6643836 -0.23665571
0.019439369 3.6644959 -0.23647714
0.012678608 3.6646066 -0.2362988
0.0059188902 3.6647189 -0.23612022
-0.00064662099 3.6640313 -0.23314023
-0.0071981102 3.6633434 -0.23016047
-0.01331605 3.6610634 -0.22157836
-0.019818574 3.6603746 -0.2185998
-0.026084855 3.6588874 -0.21282053
-0.032779709 3.6589937 -0.2126441
-0.039473534 3.659102 -0.21246743
-0.045674875 3.6576116 -0.20669055
-0.052608997 3.6585155 -0.20931458
-0.059820369 3.6602159 -0.21473813
-0.067059755 3.6619155 -0.2201612
-0.073777661 3.6620193 -0.21998429
-0.080776796 3.6629212 -0.22260642
-0.08808817 3.6646202 -0.22802782
-0.095128313 3.6655228 -0.23064947
-0.10218243 3.6664238 -0.23327041
-0.10893331 3.6665282 -0.23309255
-0.11633296 3.6682262 -0.23852158
-0.12409757 3.6707234 -0.24673772
-0.13190813 3.6732218 -0.25495315
-0.13941546 3.6749241 -0.26036882
-0.14624141 3.6750236 -0.26018929
-0.15343149 3.6759272 -0.26280689
-0.16063662 3.6768267 -0.26542449
-0.16861214 3.6793258 -0.27363515
-0.17740907 3.683423 -0.28743815
-0.184312 3.6835241 -0.28725672
-0.19201632 3.6852248 -0.29266763
-0.19934039 3.6861267 -0.29528189
-0.20709874 3.6878242 -0.30069208
-0.21403562 3.6879258 -0.30050969
-0.22183986 3.6896286 -0.30591774
-0.22834869 3.688925 -0.30294037
0.20992851 3.675653 -0.31774855
0.20316334 3.6797037 -0.33160615
0.19618647 3.6806192 -0.33422852
0.18911719 3.6791782 -0.32842612
0.18204698 3.6761661 -0.31700897
0.17504713 3.6739354 -0.30840158
0.16809781 3.672492 -0.30260229
0.16118293 3.6702595 -0.29399705
0.15430251 3.6688123 -0.2881999
0.14742954 3.6681499 -0.28521061
0.14057356 3.6674876 -0.28222156
0.13376909 3.6660388 -0.27642632
0.1270836 3.6630149 -0.26501966
0.12041155 3.6607752 -0.25642133
0.11384498 3.6577485 -0.24501777
0.10706837 3.6578672 -0.24483848
0.10036627 3.6571989 -0.24185348
0.093678407 3.6565299 -0.23885942
0.087010242 3.6558592 -0.23587561
0.080255575 3.6559746 -0.23569703
0.073501907 3.6560898 -0.23551846
0.066861726 3.6554177 -0.23253536
0.060116053 3.6555326 -0.23235703
0.053238869 3.6564336 -0.23498273
0.046485201 3.6565487 -0.23480415
0.039587036 3.6574492 -0.23742914
0.032978758 3.6567733 -0.23444748
0.026225045 3.6568866 -0.2342689
0.019642726 3.6562076 -0.23128772
0.012897 3.6563196 -0.23110962
0.0059677809 3.6572185 -0.23373413
-0.00059255958 3.6565387 -0.23075366
-0.007335335 3.6566489 -0.23057556
-0.013660267 3.6551795 -0.22479391
-0.019740775 3.6529217 -0.21621132
-0.025997788 3.6514492 -0.21043181
-0.032686606 3.6515574 -0.21025538
-0.039612845 3.6524532 -0.21287966
-0.045812875 3.65098 -0.20710182
-0.052747175 3.6518748 -0.20972657
-0.059696481 3.6527679 -0.21235037
-0.066931143 3.6544535 -0.21777439
-0.073639035 3.654557 -0.21759772
-0.080634326 3.6554508 -0.22022104
-0.087937012 3.657135 -0.22564316
-0.095270678 3.6588202 -0.2310648
-0.10232492 3.6597142 -0.23368621
-0.10907687 3.6598155 -0.23350859
-0.11615337 3.6607115 -0.2361393
-0.12391038 3.6631868 -0.24435735
-0.13137506 3.6648703 -0.24977565
-0.13956244 3.6681356 -0.26078939
-0.14603399 3.6674466 -0.25781178
-0.15285392 3.6675489 -0.25763226
-0.16041352 3.6692324 -0.26304841
-0.16876285 3.6725006 -0.2740581
-0.17678683 3.6749763 -0.282269
-0.1844634 3.676662 -0.28768182
-0.19176568 3.6775522 -0.29029727
-0.19949229 3.6792383 -0.29570889
-0.20641522 3.6793396 -0.29552674
-0.21419083 3.6810238 -0.30093741
-0.22155909 3.6819153 -0.30355096
-0.22894625 3.6828103 -0.30616379
-0.23544692 3.6821165 -0.30318594
-0.24101989 3.6798377 -0.29461765
0.24404171 3.6626465 -0.29943228
0.23752281 3.6666601 -0.31329846
0.23056945 3.66679 -0.31311393
0.22380799 3.6692507 -0.32135773
0.2168849 3.6701565 -0.323982
0.21004543 3.6726155 -0.33222413
0.20299375 3.6719675 -0.32922912
0.1959278 3.6705432 -0.32342601
0.18884121 3.6675634 -0.31200671
0.18186851 3.666914 -0.30901384
0.17490247 3.6654849 -0.30321312
0.16796669 3.6648331 -0.30022144
0.16106126 3.6626234 -0.29161477
0.15417446 3.6619694 -0.28862453
0.14732234 3.6605384 -0.28282738
0.14044279 3.6606588 -0.28264523
0.13363862 3.659225 -0.27684903
0.12695675 3.6562343 -0.26544046
0.12033381 3.6532402 -0.2540338
0.11377682 3.650244 -0.24262881
0.10700521 3.6503625 -0.24244952
0.10031247 3.6496997 -0.23945475
0.09354987 3.6498182 -0.23927569
0.086878859 3.6491554 -0.23629165
0.080221854 3.6484923 -0.2333076
0.073582768 3.6478262 -0.23032403
0.066960745 3.6471627 -0.22734094
0.060229063 3.6472776 -0.22716308
0.053368688 3.6481681 -0.22978973
0.046491399 3.6490631 -0.23241591
0.039745674 3.6491752 -0.23223758
0.032999948 3.6492875 -0.23205948
0.026414841 3.6486201 -0.22907758
0.019677073 3.6487303 -0.22889972
0.012585118 3.6504023 -0.23432827
0.0056478232 3.6512952 -0.23695278
-0.00092037022 3.6506248 -0.2339716
-0.0074715912 3.649951 -0.23099089
-0.013591602 3.6477187 -0.22240567
-0.019662738 3.6454806 -0.21382189
-0.025910422 3.6440251 -0.20804167
-0.032594249 3.6441331 -0.20786548
-0.039274096 3.6442392 -0.20768929
-0.045951977 3.6443441 -0.20751333
-0.052886397 3.6452308 -0.21013832
-0.059575275 3.6453371 -0.20996189
-0.066801265 3.6470056 -0.21538687
-0.073501155 3.647109 -0.21521044
-0.080776125 3.6487782 -0.2206347
-0.08807911 3.6504462 -0.22605777
-0.095715597 3.6528993 -0.23428011
-0.10277925 3.6537862 -0.23691177
-0.10953914 3.6538897 -0.23673391
-0.11629908 3.6539907 -0.23655605
-0.12372501 3.6556611 -0.24197626
-0.1315185 3.6581109 -0.25019479
-0.13866489 3.6589985 -0.25281453
-0.1454698 3.6591008 -0.25263524
-0.15263827 3.6599827 -0.25525475
-0.16019221 3.6616521 -0.26067138
-0.16815464 3.6641049 -0.26888537
-0.17577653 3.6657743 -0.27430081
-0.18343045 3.6674423 -0.27971506
-0.19111232 3.6691139 -0.28512859
-0.19841476 3.6699982 -0.28774452
-0.20573314 3.6708839 -0.29035974
-0.21306761 3.6717658 -0.29297495
-0.22084649 3.6734362 -0.29838634
-0.22821684 3.6743217 -0.3010006
-0.23515378 3.6744213 -0.3008182
-0.24208774 3.6745195 -0.30063605
-0.24855621 3.6738334 -0.29765844
-0.25501168 3.673147 -0.29468083
-0.26192868 3.6732452 -0.29449916
0.2514984 3.6610267 -0.31971812
0.24487661 3.6642327 -0.3307755
0.23787531 3.6643641 -0.33058977
0.23065954 3.6621881 -0.32197309
0.22368324 3.6623192 -0.32178807
0.21676005 3.6632199 -0.32441258
0.20987096 3.6648855 -0.32984638
0.20278832 3.6634784 -0.32404184
0.19570348 3.661298 -0.31542897
0.1886646 3.6591167 -0.30681729
0.18170705 3.6584749 -0.30382419
0.17475528 3.6570606 -0.29802322
0.16783884 3.6571867 -0.29783988
0.16093303 3.6557717 -0.29204011
0.15404642 3.6551268 -0.28904939
0.1471945 3.6537068 -0.28325129
0.14031501 3.6538303 -0.2830689
0.13354594 3.6516414 -0.27446461
0.12682685 3.6494515 -0.26586127
0.1202075 3.6464882 -0.25445294
0.11358729 3.6442938 -0.24585271
0.10694654 3.6428695 -0.24005032
0.10018393 3.6429877 -0.23987126
0.093504041 3.6423314 -0.2368865
0.08674743 3.6424496 -0.23670745
0.080093518 3.6417916 -0.2337234
0.073561415 3.6403639 -0.22793365
0.067059278 3.6389349 -0.22214508
0.06034261 3.6390505 -0.22196746
0.053366326 3.6407056 -0.22739983
0.046357125 3.6423655 -0.23283124
0.039758191 3.6417065 -0.22984838
0.033172205 3.6410451 -0.22686601
0.026441455 3.6411572 -0.22668839
0.019712687 3.6412668 -0.22651076
0.012803242 3.6421533 -0.22913647
0.0058796853 3.6430342 -0.23176241
-0.00086304545 3.643146 -0.23158407
-0.0074081123 3.6424813 -0.22860312
-0.013518751 3.6402688 -0.22001696
-0.01980108 3.6388307 -0.21423435
-0.02604951 3.6373892 -0.20845318
-0.032961056 3.6382709 -0.21107936
-0.039410159 3.6376042 -0.2081008
-0.046090052 3.6377091 -0.2079246
-0.052769899 3.6378152 -0.20774841
-0.059187084 3.637145 -0.20477104
-0.066399351 3.6387994 -0.21019769
-0.073085263 3.6389024 -0.2100215
-0.080346569 3.6405547 -0.21544671
-0.08763282 3.6422071 -0.22087145
-0.095255747 3.6446371 -0.22909546
-0.10261302 3.646291 -0.23451829
-0.10936494 3.6463923 -0.23434067
-0.11644478 3.6472714 -0.23697233
-0.12387104 3.6489234 -0.24239373
-0.13132523 3.650579 -0.24781394
-0.13846581 3.6514554 -0.25043464
-0.14561643 3.6523323 -0.25305486
-0.15242232 3.6524343 -0.2528758
-0.15959693 3.6533105 -0.25549555
-0.1675448 3.6557403 -0.26371098
-0.175153 3.6573935 -0.26912761
-0.18279023 3.6590462 -0.27454352
-0.18965314 3.6591475 -0.27436304
-0.19733734 3.6608009 -0.27977753
-0.20504852 3.662456 -0.2851913
-0.21279378 3.6641078 -0.29060435
-0.22056688 3.6657639 -0.29601669
-0.22748984 3.6658621 -0.29583478
-0.2339582 3.665184 -0.29285645
-0.24132971 3.6660616 -0.29547119
-0.2487113 3.6669364 -0.29808569
-0.25611085 3.6678145 -0.30069947
-0.26256222 3.6671338 -0.29772186
-0.26997584 3.6680093 -0.30033565
-0.27542001 3.6657741 -0.29176736
-0.28283054 3.6666493 -0.29438114
0.2795009 3.6550918 -0.32651305
0.27251664 3.655225 -0.32632732
0.26542437 3.6545975 -0.32333016
0.25855008 3.6554925 -0.32595611
0.2518467 3.6579063 -0.33420467
0.24483937 3.6580372 -0.33401871
0.23775314 3.6574106 -0.33102131
0.23053783 3.6552575 -0.32240343
0.22355947 3.6553874 -0.32221818
0.21652415 3.6547573 -0.31922269
0.20960081 3.6556489 -0.32184768
0.20250046 3.6534948 -0.3132329
0.19551402 3.6528597 -0.31023884
0.1884656 3.649941 -0.29881644
0.18153018 3.6493058 -0.29582357
0.17461167 3.6486673 -0.29283142
0.16771126 3.6495557 -0.29545736
0.16080776 3.6489172 -0.29246545
0.15391731 3.6482811 -0.28947401
0.14708668 3.6461153 -0.28086662
0.14027509 3.6447124 -0.27506876
0.13349548 3.6433082 -0.26927137
0.12674287 3.6419044 -0.26347518
0.12007813 3.6397336 -0.25487208
0.11345841 3.6375639 -0.24627018
0.10674775 3.636919 -0.24328375
0.10013026 3.635509 -0.23748112
0.093373589 3.6356244 -0.23730254
0.086800843 3.6342144 -0.23151064
0.080162086 3.6335652 -0.22852635
0.073536322 3.6329157 -0.22554255
0.066810638 3.6330304 -0.22536469
0.060087964 3.6331453 -0.22518682
0.053365275 3.6332598 -0.22500896
0.046501659 3.6341376 -0.22763634
0.039916813 3.6334844 -0.22465372
0.033345982 3.6328309 -0.22167134
0.026631221 3.6329424 -0.22149396
0.01974462 3.6338205 -0.22412086
0.012669072 3.6354616 -0.22955155
0.0059292912 3.6355705 -0.22937369
-0.00061562657 3.6349137 -0.22639203
-0.0073443949 3.6350234 -0.22621441
-0.013864338 3.634366 -0.2232337
-0.019936472 3.632179 -0.21464682
-0.026634321 3.6322851 -0.21447015
-0.03286843 3.6308603 -0.2086885
-0.039310455 3.6301987 -0.2057097
-0.045733407 3.6295407 -0.20273137
-0.052399337 3.6296425 -0.20255589
-0.059326053 3.6305151 -0.20518208
-0.065997928 3.630621 -0.20500612
-0.072949663 3.6314912 -0.20763183
-0.080199242 3.6331291 -0.21305799
-0.087482855 3.6347649 -0.21848416
-0.094795361 3.636404 -0.2239089
-0.10213597 3.6380405 -0.2293334
-0.1095105 3.6396806 -0.23475671
-0.11658849 3.6405506 -0.23738909
-0.12368323 3.6414206 -0.24001122
-0.13113172 3.643059 -0.24543262
-0.13791467 3.6431608 -0.24525404
-0.14505236 3.6440313 -0.24787521
-0.15184034 3.6441302 -0.24769664
-0.15900107 3.6450009 -0.2503171
-0.16655554 3.6466384 -0.25573611
-0.17414109 3.6482773 -0.2611537
-0.1813608 3.6491463 -0.26377273
-0.18899734 3.6507821 -0.2691896
-0.1958463 3.650882 -0.26900959
-0.20394559 3.6532893 -0.27722311
-0.21124329 3.6541567 -0.27984023
-0.21898581 3.6557944 -0.28525424
-0.22587667 3.6558962 -0.2850728
-0.23366417 3.6575346 -0.29048562
-0.24057014 3.6576324 -0.29030442
-0.24840064 3.6592696 -0.29571652
-0.25532061 3.6593678 -0.29553461
-0.26223761 3.6594658 -0.29535294
-0.26915455 3.659564 -0.29517126
-0.27508098 3.658123 -0.28939795
-0.28248274 3.6589899 -0.29201245
-0.28836924 3.6575472 -0.28624034
-0.29577792 3.6584144 -0.28885436
-0.30056804 3.6554272 -0.27749395
-0.30636561 3.6539836 -0.27172422
0.30605769 3.6416008 -0.3051784
0.29958481 3.6439908 -0.31343436
0.29264051 3.6441233 -0.31324983
0.28636429 3.6480179 -0.32712936
0.2796306 3.6496558 -0.33256912
0.2727502 3.6505437 -0.33519554
0.26573995 3.6506784 -0.3350091
0.25863081 3.6500573 -0.33201098
0.25153673 3.6494391 -0.32901311
0.24436975 3.6480644 -0.32320428
0.23723376 3.6466894 -0.3173964
0.23012875 3.6453147 -0.311589
0.22311655 3.6446919 -0.30859351
0.21612233 3.6440659 -0.3055985
0.20923579 3.644949 -0.30822515
0.20225453 3.6443226 -0.30523062
0.19529128 3.6436961 -0.30223656
0.18826646 3.6408088 -0.29081297
0.18133825 3.6394253 -0.28501081
0.1744588 3.6395507 -0.28482842
0.16758119 3.6404285 -0.28745556
0.16069274 3.6405542 -0.28727293
0.15381739 3.639924 -0.28428125
0.1470042 3.6377807 -0.27567291
0.14020795 3.6363947 -0.26987386
0.1334416 3.635005 -0.26407647
0.12666014 3.6343694 -0.26108766
0.12000087 3.6322234 -0.25248313
0.11332949 3.6308322 -0.24668789
0.10675638 3.6286821 -0.23807621
0.10007687 3.6280444 -0.23509002
0.093496382 3.6266487 -0.22929716
0.086946875 3.6252522 -0.2235055
0.080230184 3.6253667 -0.22332788
0.073406488 3.6262407 -0.22595644
0.066564731 3.6271112 -0.22858477
0.059957072 3.6264672 -0.22560096
0.053231388 3.6265821 -0.22542334
0.04650566 3.6266947 -0.22524548
0.039782926 3.6268065 -0.22506785
0.033367306 3.6254048 -0.21927953
0.02665855 3.6255164 -0.21910238
0.019949824 3.6256289 -0.21892524
0.013065994 3.6264949 -0.22155285
0.0061652064 3.6273642 -0.22417998
-0.00055758655 3.6274729 -0.2240026
-0.0070793331 3.6268246 -0.22102094
-0.013585106 3.6261761 -0.21803999
-0.019857913 3.6247659 -0.21225619
-0.026546717 3.6248751 -0.21207976
-0.032774568 3.6234641 -0.20629668
-0.038968399 3.6220534 -0.20051455
-0.045379236 3.6214001 -0.19753647
-0.051773116 3.6207466 -0.19455862
-0.058677033 3.6216102 -0.19718599
-0.065597966 3.6224709 -0.19981265
-0.072529808 3.6233346 -0.20243931
-0.079768717 3.6249554 -0.20786738
-0.086740568 3.6258202 -0.21049309
-0.094030455 3.6274419 -0.21591926
-0.10135131 3.6290641 -0.22134519
-0.10901813 3.6314468 -0.2295711
-0.11640801 3.6330674 -0.23499513
-0.1234941 3.6339316 -0.23762774
-0.13025405 3.6340332 -0.23744988
-0.13736297 3.6348941 -0.24007225
-0.14412887 3.6349955 -0.23989415
-0.15126075 3.6358581 -0.2425158
-0.15803267 3.6359596 -0.24233747
-0.16556455 3.6375794 -0.24775791
-0.17312734 3.6392031 -0.25317764
-0.18071915 3.6408241 -0.25859642
-0.18793903 3.641685 -0.26121593
-0.19517393 3.6425452 -0.26383495
-0.20242478 3.6434069 -0.26645374
-0.21054249 3.6457915 -0.27466798
-0.21783639 3.6466498 -0.27728581
-0.22470237 3.64675 -0.27710533
-0.23201926 3.6476097 -0.27972221
-0.2393501 3.6484725 -0.28233862
-0.24716188 3.6500945 -0.28775215
-0.25405884 3.6501923 -0.28757095
-0.26095277 3.650291 -0.28738976
-0.26784676 3.6503887 -0.2872088
-0.27424389 3.6497233 -0.28423142
-0.28062397 3.6490586 -0.28125453
-0.28750098 3.6491561 -0.28107405
-0.29593462 3.6515403 -0.28928041
-0.30177784 3.6501117 -0.28350854
-0.30812401 3.6494431 -0.2805326
-0.31445616 3.6487775 -0.27755737
-0.32131916 3.6488719 -0.27737713
-0.32650864 3.6466782 -0.26881337
-0.33221787 3.645247 -0.26304507
-0.34133345 3.6483939 -0.27404284
0.33857888 3.6266103 -0.27837634
0.33267778 3.6304624 -0.29226828
0.32544029 3.629112 -0.28645587
0.31960583 3.6337073 -0.30315948
0.31450063 3.6420238 -0.33393121
0.30719107 3.6406715 -0.32811737
0.30035549 3.6415508 -0.33074522
0.29294235 3.6394558 -0.32211876
0.28611067 3.640332 -0.32474709
0.2788831 3.6389785 -0.31893539
0.27192181 3.6391125 -0.31875038
0.26517889 3.6407354 -0.32419062
0.25820255 3.6408668 -0.32400537
0.25122428 3.6409998 -0.32382011
0.24381354 3.6374049 -0.30957437
0.23671784 3.6360459 -0.30376625
0.22971976 3.6354289 -0.30077076
0.22273973 3.6348145 -0.29777551
0.21577662 3.6341958 -0.29478097
0.20887426 3.6343257 -0.29459763
0.20193113 3.6337068 -0.2916038
0.19500396 3.6330855 -0.2886107
0.18806809 3.6317189 -0.28280687
0.18117896 3.6310999 -0.27981424
0.17430677 3.6304779 -0.27682233
0.16744801 3.6313484 -0.27945018
0.16058981 3.6307259 -0.27645874
0.15373331 3.6308489 -0.27627707
0.14696483 3.6279821 -0.26485872
0.14019981 3.6266098 -0.25905991
0.13342752 3.6259828 -0.25607061
0.12662199 3.6261048 -0.25589037
0.11992788 3.624728 -0.2500937
0.11332329 3.6226034 -0.2414794
0.10669714 3.6212254 -0.23568439
0.1001 3.6198468 -0.22989011
0.093452565 3.6192145 -0.22690463
0.086911343 3.6178331 -0.22111177
0.080400147 3.6164529 -0.21532035
0.073598213 3.6173146 -0.21794987
0.066780336 3.6181796 -0.22057939
0.059947409 3.6190417 -0.22320867
0.053230688 3.6191545 -0.22303104
0.046375781 3.6200171 -0.22565985
0.039796263 3.6193805 -0.22267604
0.033234686 3.618741 -0.21969295
0.026525944 3.6188533 -0.21951556
0.019817203 3.6189649 -0.21933842
0.013286605 3.6183248 -0.21635628
0.006215468 3.6199346 -0.22178912
-0.00030614436 3.6192942 -0.21880722
-0.0070149153 3.6194038 -0.21863008
-0.013302401 3.6180108 -0.21284509
-0.019779012 3.6173706 -0.20986414
-0.0262357 3.6167262 -0.20688391
-0.032213077 3.6145802 -0.19829702
-0.038383648 3.6131833 -0.19251466
-0.045018494 3.6132903 -0.19233966
-0.051911548 3.6141458 -0.19496775
-0.0588146 3.6150002 -0.19759583
-0.065464482 3.6151056 -0.19742036
-0.072671667 3.6167119 -0.20284986
-0.079620704 3.6175671 -0.20547676
-0.086881861 3.6191745 -0.21090508
-0.094172046 3.620779 -0.21633244
-0.10149319 3.6223865 -0.22175932
-0.10852523 3.6232409 -0.22438359
-0.11557527 3.6240959 -0.22700787
-0.12263827 3.6249514 -0.22963166
-0.12971635 3.6258028 -0.23225546
-0.13646226 3.6259069 -0.2320776
-0.1435623 3.6267598 -0.23470044
-0.15067764 3.6276135 -0.23733306
-0.15743555 3.6277151 -0.2371552
-0.16457258 3.6285686 -0.23977733
-0.17211373 3.6301746 -0.24519825
-0.17968284 3.6317813 -0.25061893
-0.18687986 3.632633 -0.25323963
-0.19409187 3.6334877 -0.25585961
-0.20173801 3.6350927 -0.26127791
-0.20898704 3.6359453 -0.26389718
-0.21625312 3.6367979 -0.26651621
-0.22308709 3.6368978 -0.26633644
-0.23082413 3.6385043 -0.2717526
-0.23813321 3.6393547 -0.27437043
-0.24592127 3.6409624 -0.27978516
-0.2523182 3.6403058 -0.27680755
-0.25918418 3.6404042 -0.2766273
-0.26555812 3.6397471 -0.27364993
-0.27142107 3.6383357 -0.26787639
-0.27775604 3.6376753 -0.26490045
-0.28561014 3.6392817 -0.27031374
-0.29401213 3.6416457 -0.27852201
-0.30087823 3.6417398 -0.27834201
-0.30721015 3.6410823 -0.27536607
-0.3129822 3.6396673 -0.26959491
-0.31927323 3.6390061 -0.26662016
-0.3261072 3.6391025 -0.26644063
-0.33350426 3.6399517 -0.26905632
-0.34149027 3.6415606 -0.27446628
-0.34659934 3.6393876 -0.26590276
-0.35166341 3.6372137 -0.25734067
-0.35608143 3.634284 -0.24598598
-0.36285657 3.6343765 -0.24580836
-0.3684057 3.6329567 -0.24004316
-0.37454081 3.6322937 -0.23707247
0.37382519 3.6228023 -0.29379153
0.36785379 3.6258779 -0.30487347
0.36138451 3.6274853 -0.31032157
0.3546688 3.6283593 -0.31295323
0.34794205 3.6292317 -0.31558442
0.34061086 3.627897 -0.30976868
0.33330971 3.6265645 -0.30395389
0.32675844 3.6281714 -0.30940008
0.32034665 3.6305144 -0.31766057
0.31438136 3.635066 -0.33436322
0.30707216 3.6337318 -0.32854819
0.30038697 3.63534 -0.33399105
0.29282463 3.6325271 -0.32254887
0.2858564 3.6326632 -0.32236362
0.27838504 3.629849 -0.31092429
0.27144873 3.629981 -0.31073999
0.26461995 3.6308522 -0.3133688
0.25757113 3.6302471 -0.31037116
0.25034922 3.628166 -0.30174851
0.24308872 3.6253479 -0.29031467
0.23612279 3.6247382 -0.28731942
0.22924346 3.6248698 -0.28713655
0.22230253 3.6242607 -0.28414202
0.21543208 3.6243858 -0.28395987
0.20855871 3.6245153 -0.28377724
0.20164867 3.6239016 -0.28078389
0.19471914 3.6225519 -0.27497935
0.18784714 3.6219406 -0.27198672
0.18100464 3.6220634 -0.27180529
0.17415459 3.6214499 -0.26881337
0.16731954 3.6208348 -0.26582217
0.16049202 3.6209574 -0.26564145
0.1536665 3.6210799 -0.26546049
0.1469062 3.6189837 -0.25685024
0.14016351 3.6176276 -0.25105119
0.13341331 3.6170063 -0.24806213
0.12663077 3.6171279 -0.24788237
0.11996023 3.615767 -0.2420752
0.11337881 3.6136656 -0.2334702
0.10677594 3.6123023 -0.22767496
0.10027945 3.6101983 -0.21907187
0.093661122 3.6095715 -0.2160871
0.086966485 3.6096888 -0.21590996
0.080371156 3.6090617 -0.2129252
0.073685452 3.6091757 -0.21274829
0.06688042 3.6100326 -0.21537876
0.060062319 3.6108854 -0.21800852
0.053229302 3.6117425 -0.22063804
0.046380207 3.612596 -0.22326732
0.03966248 3.6127088 -0.22308993
0.033101067 3.6120782 -0.22010612
0.026392326 3.6121895 -0.21992898
0.019683585 3.6123011 -0.21975183
0.013153166 3.6116698 -0.21676898
0.00645037 3.6117792 -0.21659207
-0.00025044382 3.6118875 -0.21641517
-0.0069502145 3.6119969 -0.21623826
-0.012812719 3.6091373 -0.20484257
-0.019263238 3.6085017 -0.2018621
-0.02547349 3.6071215 -0.19607782
-0.031654745 3.6057415 -0.19029427
-0.037802011 3.6043611 -0.1845119
-0.044164628 3.6037209 -0.18153381
-0.05128108 3.6053147 -0.18696666
-0.058165282 3.6061606 -0.18959522
-0.064791188 3.6062648 -0.1894207
-0.071972668 3.6078568 -0.19485188
-0.079189196 3.6094451 -0.20028234
-0.086433634 3.6110382 -0.20571208
-0.093406811 3.6118858 -0.20833874
-0.10070528 3.6134758 -0.21376681
-0.1077175 3.6143212 -0.21639252
-0.11474164 3.6151695 -0.21901774
-0.12178184 3.6160164 -0.22164273
-0.1291803 3.6176052 -0.22706842
-0.1362585 3.6184528 -0.22969246
-0.14335065 3.6192994 -0.23231602
-0.1500936 3.6194005 -0.23213863
-0.15646531 3.6187546 -0.22916079
-0.16358055 3.6195998 -0.23178387
-0.17109822 3.621191 -0.23721647
-0.17864566 3.6227803 -0.24263859
-0.18541659 3.6228819 -0.24246049
-0.19300903 3.6244721 -0.24788117
-0.20021228 3.6253147 -0.25050235
-0.2074324 3.6261618 -0.25312257
-0.21509881 3.6277533 -0.25854135
-0.22147061 3.6271043 -0.25556397
-0.2287278 3.6279488 -0.25818324
-0.23553975 3.6280482 -0.25800419
-0.24374641 3.6303825 -0.26621962
-0.25058037 3.6304822 -0.26603985
-0.25693417 3.6298311 -0.26306272
-0.26326901 3.6291823 -0.26008606
-0.26959175 3.6285336 -0.25710964
-0.27639788 3.6286268 -0.25693107
-0.28371805 3.6294725 -0.2595489
-0.29104924 3.6303146 -0.26216698
-0.29839742 3.6311579 -0.26478434
-0.30522645 3.6312544 -0.26460481
-0.30988079 3.6283598 -0.25324202
-0.3161267 3.6277065 -0.25026774
-0.32291281 3.6277995 -0.25008988
-0.33083016 3.6293921 -0.25550199
-0.33705604 3.6287389 -0.25252867
-0.34210569 3.6265874 -0.24396539
-0.34710628 3.6244354 -0.23540354
-0.35384947 3.6245275 -0.23522663
-0.36180079 3.6261189 -0.24063826
-0.36917198 3.6269617 -0.24325514
-0.3753159 3.6263065 -0.24028349
-0.38081676 3.6249008 -0.234519
-0.38755685 3.6249959 -0.2343421
-0.39494008 3.6258368 -0.23695874
-0.40038389 3.6244321 -0.23119521
-0.40843225 3.6260211 -0.23660469
-0.41517538 3.6261144 -0.23642778
0.41439074 3.6136761 -0.28967834
0.4078089 3.614543 -0.29231381
0.39962023 3.6110494 -0.27804184
0.38671362 3.613503 -0.28613043
0.3813113 3.6180029 -0.30285072
0.37441206 3.6181407 -0.30266714
0.3677392 3.6190062 -0.30530024
0.36104932 3.6198716 -0.30793262
0.3541331 3.6200099 -0.30774856
0.34782386 3.622329 -0.3160131
0.34030068 3.6202831 -0.30738044
0.33319506 3.6196909 -0.30438089
0.32628179 3.6198258 -0.30419683
0.31971526 3.621418 -0.30964375
0.31360573 3.6251957 -0.32353473
0.30632782 3.6238749 -0.31771994
0.29981959 3.6261935 -0.32597899
0.29214251 3.6226861 -0.31172109
0.28507188 3.6220894 -0.3087225
0.27739042 3.6178503 -0.29165387
0.27039072 3.6172533 -0.28865719
0.26340201 3.6166551 -0.28566051
0.25643024 3.6160545 -0.28266454
0.24938112 3.614727 -0.27685595
0.24236298 3.6133957 -0.27104783
0.23545116 3.6127942 -0.26805401
0.22855636 3.6121922 -0.26506019
0.22161515 3.6108596 -0.25925422
0.21486811 3.6117172 -0.26188588
0.20801024 3.6111119 -0.25889325
0.20124623 3.6119699 -0.26152444
0.19434053 3.6099029 -0.25290895
0.18755502 3.6100268 -0.25272894
0.18074812 3.6094203 -0.24973774
0.17396858 3.6095421 -0.24955797
0.16718766 3.6089354 -0.24656725
0.16041611 3.6090569 -0.24638796
0.15364257 3.6091785 -0.24620843
0.14689283 3.6085675 -0.24320889
0.14021893 3.6064925 -0.23459983
0.13351488 3.6058793 -0.23161149
0.12682787 3.605268 -0.22862363
0.12020831 3.6039207 -0.22282672
0.11368129 3.6018412 -0.21422195
0.10713271 3.600493 -0.20842695
0.10053661 3.5998778 -0.20544147
0.093870893 3.5999913 -0.20526528
0.087115705 3.6008403 -0.20789719
0.080542535 3.6002219 -0.20491266
0.073986322 3.599602 -0.20192862
0.067331605 3.5997155 -0.20175266
0.060425892 3.6012967 -0.20719147
0.05362463 3.6021414 -0.20982265
0.046805426 3.6029892 -0.21245313
0.040117681 3.6031003 -0.21227646
0.033275425 3.6039457 -0.21490645
0.026258707 3.6055257 -0.2203424
0.019720465 3.6049037 -0.21735883
0.013373628 3.6035438 -0.21157002
0.0068743378 3.6029198 -0.20858765
2.0414591e-06 3.6037629 -0.21121693
-0.0068822205 3.6046069 -0.21384621
-0.012528703 3.6010399 -0.19964337
-0.018749624 3.5996778 -0.19385743
-0.024936602 3.5983119 -0.18807316
-0.031556413 3.5984199 -0.1878984
-0.037698433 3.5970533 -0.18211484
-0.044054896 3.5964222 -0.17913651
-0.050649807 3.5965257 -0.17896271
-0.057247698 3.5966301 -0.17878866
-0.063842624 3.5967336 -0.17861485
-0.070717946 3.5975747 -0.18124437
-0.077608347 3.5984118 -0.18387365
-0.085099563 3.6007228 -0.19210839
-0.092034891 3.6015618 -0.19473648
-0.09898527 3.6024001 -0.19736433
-0.1056342 3.6025023 -0.19718909
-0.11260356 3.6033392 -0.19981623
-0.11959092 3.604178 -0.20244312
-0.12693568 3.6057527 -0.20787144
-0.13395907 3.6065893 -0.21049738
-0.14064305 3.6066895 -0.21032143
-0.14695959 3.6060543 -0.20734429
-0.15363453 3.6061544 -0.20716858
-0.16068695 3.6069894 -0.20979404
-0.16814269 3.6085632 -0.21521902
-0.17443933 3.6079249 -0.2122426
-0.18153168 3.6087606 -0.21486712
-0.1890475 3.6103344 -0.2202909
-0.21587454 3.6107242 -0.2195859
-0.22347821 3.6123004 -0.2250073
-0.23065664 3.6131349 -0.22762942
-0.25804716 3.6142571 -0.22972083
-0.26577109 3.6158333 -0.23514891
-0.27352583 3.6174061 -0.24056697
-0.28079814 3.618242 -0.24318647
-0.28600621 3.6161196 -0.23461747
-0.29274929 3.6162148 -0.23444057
-0.3000297 3.6170478 -0.23706007
-0.30569285 3.6156611 -0.23128033
-0.3113243 3.6142769 -0.22551107
-0.31915897 3.6158512 -0.23092651
-0.32702196 3.6174266 -0.23635149
-0.33319378 3.6167769 -0.23337889
-0.33818865 3.6146502 -0.22480583
-0.34431142 3.6140039 -0.22183442
-0.35161483 3.6148374 -0.22445345
-0.35953552 3.6164103 -0.22986698
-0.36626464 3.6165023 -0.22969055
-0.37236744 3.6158555 -0.22671986
-0.3790856 3.6159472 -0.22654366
-0.38643998 3.6167815 -0.22916102
-0.39252073 3.6161335 -0.22619104
-0.39923495 3.6162262 -0.22601485
-0.40792698 3.6185446 -0.23422861
-0.4153294 3.6193769 -0.23684525
-0.42140228 3.6187286 -0.23387504
-0.42608839 3.6165965 -0.22531009
-0.43211216 3.6159453 -0.22234154
-0.43881524 3.6160398 -0.22216535
-0.44692987 3.6176162 -0.22757387
0.44663924 3.6018443 -0.27409792
0.43951893 3.6012664 -0.27109694
0.43423736 3.6049957 -0.28501201
0.42769527 3.6058526 -0.28764868
0.42084807 3.6059926 -0.28746629
0.41371977 3.6054139 -0.28446507
0.40769601 3.607708 -0.29273844
0.40109691 3.6085629 -0.29537392
0.3939656 3.6079853 -0.29237247
0.38660008 3.6066861 -0.28655386
0.38023317 3.6082597 -0.29200697
0.37336498 3.6083999 -0.29182386
0.36694708 3.6099753 -0.2972753
0.36006185 3.6101129 -0.29709196
0.35296541 3.6095285 -0.29409218
0.34608918 3.6096659 -0.29390907
0.33920991 3.6098003 -0.29372621
0.33214146 3.6092155 -0.29072666
0.32508999 3.6086304 -0.28772783
0.31822574 3.6087656 -0.2875452
0.31185108 3.6110618 -0.29580927
0.30480555 3.6104746 -0.29281092
0.29821867 3.6120491 -0.29825783
0.29061636 3.6085801 -0.28399944
0.28349358 3.6072679 -0.27818799
0.27639782 3.605958 -0.27237678
0.26956746 3.6060884 -0.2721951
0.26262784 3.6054955 -0.26920009
0.25549775 3.6034603 -0.26057673
0.24832347 3.6007037 -0.24914098
0.24155205 3.6008313 -0.24896121
0.23470362 3.6002359 -0.24595833
0.22794116 3.6003623 -0.2457788
0.22099096 3.5983214 -0.23716044
0.21430574 3.59917 -0.23979425
0.20741545 3.5971248 -0.23117781
0.2007685 3.5986953 -0.236624
0.19393419 3.5966501 -0.22800899
0.18721464 3.5967729 -0.22783065
0.18046458 3.595449 -0.22202897
0.17375477 3.5948486 -0.21904016
0.16705818 3.594969 -0.21886277
0.16037133 3.5943666 -0.2158742
0.15366709 3.5952125 -0.21850777
0.14699414 3.5946057 -0.21551967
0.14033829 3.5940027 -0.21253204
0.13365564 3.5941195 -0.21235514
0.12702271 3.5935133 -0.20936823
0.12051116 3.5914586 -0.20076203
0.11392415 3.5908482 -0.19777632
0.10742188 3.5895171 -0.19198203
0.10087185 3.588906 -0.18899727
0.094169475 3.589746 -0.19163132
0.0875438 3.5898619 -0.19145584
0.080816388 3.5906994 -0.19408894
0.074184664 3.5908124 -0.1939137
0.06731765 3.5923789 -0.19935441
0.060545266 3.5932171 -0.20198679
0.053754896 3.5940566 -0.20461822
0.047230788 3.5934422 -0.20163488
0.040281743 3.595006 -0.20707369
0.033609986 3.5951169 -0.2068975
0.02644828 3.597405 -0.21514225
0.019927174 3.5967906 -0.21215868
0.013416022 3.596174 -0.20917535
0.0069258511 3.5955563 -0.20619273
0.0002540797 3.5956669 -0.20601654
-0.0062131435 3.5950465 -0.20303464
-0.0122471 3.5929747 -0.19444156
-0.018450722 3.5916271 -0.18865585
-0.024847016 3.5910044 -0.18567586
-0.031229287 3.5903816 -0.18269634
-0.037352964 3.5890326 -0.17691231
-0.043445662 3.5876822 -0.17112899
-0.049506366 3.5863314 -0.16534662
-0.056064293 3.5864351 -0.16517353
-0.062349692 3.5858076 -0.16219735
-0.069180191 3.5866387 -0.16482806
-0.075735137 3.5867414 -0.16465521
-0.082585707 3.5875702 -0.16728616
-0.089453205 3.588402 -0.16991639
-0.09633176 3.589231 -0.17254663
-0.10354586 3.5907886 -0.17797899
-0.11013784 3.5908899 -0.17780542
-0.11739694 3.5924482 -0.18323684
-0.12434743 3.5932784 -0.18586516
-0.13095947 3.5933774 -0.18569136
-0.13757347 3.5934763 -0.18551731
-0.14418648 3.593575 -0.18534327
-0.15079848 3.5936737 -0.18516922
-0.15778802 3.5945017 -0.18779612
-0.16479455 3.59533 -0.19042325
-0.1718161 3.5961585 -0.19304967
-0.17804463 3.5955253 -0.19007468
-0.18508013 3.596354 -0.19270086
-0.19170921 3.5964501 -0.19252682
-0.19834127 3.5965462 -0.19235229
-0.20497029 3.5966423 -0.19217825
-0.21159936 3.5967383 -0.19200397
-0.21912743 3.5982964 -0.19742846
-0.22622795 3.5991235 -0.20005298
-0.23380704 3.6006823 -0.20547628
-0.24094559 3.6015069 -0.20810032
-0.24761663 3.6016037 -0.20792484
-0.25379723 3.6009665 -0.20495129
-0.26195079 3.6032548 -0.21317053
-0.26964277 3.6048148 -0.21859097
-0.27634084 3.6049101 -0.21841502
-0.28148049 3.6028085 -0.20984626
-0.28815454 3.6029024 -0.20967102
-0.29643309 3.60519 -0.21788764
-0.30312818 3.6052842 -0.21771193
-0.30927384 3.6046464 -0.21473908
-0.31595987 3.6047416 -0.21456361
-0.32320946 3.6055651 -0.21718478
-0.32990456 3.6056592 -0.21700883
-0.33659667 3.6057515 -0.21683335
-0.34328574 3.6058457 -0.21665764
-0.35057127 3.6066709 -0.21927738
-0.35848129 3.6082287 -0.22469258
-0.3645789 3.6075897 -0.22172117
-0.37190145 3.6084156 -0.2243402
-0.37798518 3.6077738 -0.2213695
-0.38531971 3.6085997 -0.22398829
-0.39138633 3.6079602 -0.2210176
-0.39873791 3.6087856 -0.22363615
-0.40610439 3.6096122 -0.22625399
-0.41348493 3.6104381 -0.22887135
-0.42020506 3.6105309 -0.22869515
-0.42692518 3.6106226 -0.22851872
-0.43364632 3.6107144 -0.22834253
-0.44036329 3.6108098 -0.2281661
-0.44778711 3.6116371 -0.23079228
-0.45451325 3.6117291 -0.23061585
-0.46195871 3.6125569 -0.23323178
-0.46796244 3.6119137 -0.23026299
-0.47174072 3.6090679 -0.21890926
0.45947087 3.5933654 -0.26924062
0.45496732 3.5984704 -0.28880239
0.44875914 3.6000333 -0.29426026
0.44127804 3.598752 -0.28843737
0.43503785 3.6003134 -0.29389453
0.42817658 3.6004524 -0.29371166
0.42102551 3.599884 -0.29070926
0.41360933 3.5986028 -0.28488827
0.40703911 3.5994513 -0.28752494
0.40019089 3.5995884 -0.28734255
0.39308268 3.5990162 -0.28434157
0.38598943 3.5984426 -0.28134084
0.37915319 3.5985794 -0.28115869
0.37231696 3.598716 -0.28097677
0.36547774 3.5988526 -0.28079462
0.35842049 3.5982795 -0.27779484
0.35138118 3.5977023 -0.27479577
0.34455591 3.5978367 -0.2746141
0.33753657 3.597259 -0.27161598
0.3307173 3.5973935 -0.27143455
0.32353991 3.5961018 -0.26561999
0.31673759 3.5962348 -0.26543903
0.31026238 3.5977936 -0.27089047
0.30359709 3.5986388 -0.27352452
0.2966207 3.5980582 -0.27052784
0.28909606 3.594624 -0.25626898
0.28204957 3.5933282 -0.250458
0.27515537 3.5927448 -0.24745321
0.2682789 3.5921595 -0.24445891
0.26152453 3.5922897 -0.24427938
0.25467002 3.5917032 -0.24128556
0.24773538 3.5904024 -0.23547769
0.24091786 3.5898161 -0.23248506
0.2341944 3.5899417 -0.23230672
0.22739981 3.5893521 -0.22931457
0.22055617 3.5880499 -0.22350907
0.21385662 3.588172 -0.22333145
0.2070118 3.5861521 -0.21471477
0.20029318 3.5855613 -0.21172476
0.19359049 3.5849669 -0.20873523
0.18692695 3.5850897 -0.20855856
0.18024623 3.5844951 -0.20556974
0.17358255 3.5839009 -0.20258141
0.16693284 3.5833058 -0.19959331
0.16029812 3.5827103 -0.19660544
0.15364966 3.5835464 -0.19924116
0.14700705 3.5836656 -0.19906497
0.14039727 3.5830669 -0.1960783
0.13380247 3.5824687 -0.19309211
0.1271728 3.5825849 -0.19291663
0.120601 3.5819852 -0.18993068
0.11398332 3.5821011 -0.18975568
0.10750331 3.5807834 -0.18396044
0.10082178 3.581615 -0.18659544
0.09438169 3.5802937 -0.18080187
0.087787002 3.580409 -0.18062711
0.081192255 3.5805216 -0.18045282
0.074380875 3.5820689 -0.18589616
0.067536518 3.583617 -0.19133878
0.060786016 3.5844498 -0.1939714
0.054151237 3.5845599 -0.19379616
0.047378689 3.5853901 -0.19642901
0.040591151 3.5862207 -0.19906139
0.033785626 3.5870514 -0.2016933
0.026805267 3.5885987 -0.20713234
0.019963697 3.5894272 -0.20976353
0.013462707 3.5888186 -0.20677996
0.0069776922 3.5882094 -0.20379686
0.00050766766 3.5876 -0.20081449
-0.0059453994 3.5869875 -0.19783258
-0.011961952 3.584938 -0.18923879
-0.017932504 3.5828857 -0.18064594
-0.024081856 3.5815535 -0.17486024
-0.030664757 3.5816576 -0.17468667
-0.036766186 3.5803213 -0.16890216
-0.042835593 3.5789874 -0.16311908
-0.048618317 3.5769289 -0.15453124
-0.054883495 3.576313 -0.15155435
-0.061674178 3.5771356 -0.15418696
-0.068478882 3.5779572 -0.15681958
-0.075010851 3.5780597 -0.15664744
-0.081545845 3.57816 -0.15647531
-0.088077828 3.5782604 -0.15630317
-0.094919488 3.579083 -0.15893459
-0.10145749 3.5791833 -0.15876245
-0.10864888 3.5807266 -0.16419625
-0.11520191 3.5808244 -0.16402388
-0.12209763 3.5816445 -0.16665411
-0.12830596 3.5810218 -0.16367888
-0.13557132 3.5825663 -0.16911101
-0.14250405 3.5833852 -0.17174053
-0.14870436 3.5827622 -0.16876554
-0.15488975 3.5821369 -0.16579103
-0.16183443 3.5829582 -0.16842008
-0.16918786 3.5844982 -0.1738503
-0.17576589 3.5845964 -0.17367721
-0.18316828 3.5861373 -0.179106
-0.18976031 3.5862327 -0.17893267
-0.19635235 3.5863311 -0.17875934
-0.20294143 3.5864265 -0.17858601
-0.2095315 3.5865219 -0.17841291
-0.2170219 3.5880623 -0.18383956
-0.22454427 3.5896053 -0.18926501
-0.23162796 3.5904238 -0.19189048
-0.23825105 3.5905199 -0.19171643
-0.24487816 3.5906129 -0.19154239
-0.2515012 3.590709 -0.19136834
-0.25961518 3.5929737 -0.19959044
-0.26676494 3.5937905 -0.20221448
-0.27341998 3.5938873 -0.20203948
-0.27903086 3.5925312 -0.1962688
-0.28619456 3.5933485 -0.19889235
-0.29390794 3.5948915 -0.20431328
-0.30110866 3.5957093 -0.20693612
-0.30777168 3.595803 -0.20676112
-0.31443584 3.5958967 -0.20658612
-0.32166255 3.5967121 -0.20920777
-0.32890624 3.5975304 -0.21182942
-0.33558333 3.5976243 -0.21165395
-0.34284705 3.5984433 -0.21427512
-0.34953016 3.5985353 -0.21409965
-0.35681677 3.5993545 -0.2167201
-0.36289138 3.5987203 -0.21374917
-0.37081259 3.6002653 -0.21916437
-0.37688112 3.5996308 -0.21619368
-0.38420188 3.6004477 -0.21881318
-0.390894 3.6005399 -0.2186377
-0.39824063 3.6013603 -0.22125649
-0.40559834 3.6021776 -0.22387528
-0.41297001 3.6029954 -0.2264936
-0.41901058 3.6023636 -0.22352314
-0.42571366 3.6024561 -0.22334743
-0.43310827 3.6032741 -0.22596502
-0.43912095 3.602639 -0.22299576
-0.44652957 3.6034603 -0.22561288
-0.45181257 3.6020985 -0.21985078
-0.4592272 3.6029172 -0.22246814
-0.46592838 3.6030095 -0.22229218
-0.47189194 3.6023762 -0.21932387
-0.47560704 3.5995591 -0.20797968
0.47468662 3.5898252 -0.28413057
0.46683407 3.5878627 -0.2754848
0.46170187 3.5915096 -0.28940868
0.45518452 3.5923524 -0.29204702
0.44928783 3.5945983 -0.30032635
0.44147825 3.5926352 -0.29168153
0.43492687 3.5934753 -0.29431939
0.42776787 3.5929151 -0.29131603
0.42062682 3.5923514 -0.28831363
0.41293913 3.5903833 -0.27967215
0.40611088 3.5905199 -0.27949023
0.3995496 3.5913634 -0.28212762
0.3929702 3.5922041 -0.28476477
0.38587612 3.5916367 -0.28176355
0.37856019 3.5903676 -0.27594423
0.3717379 3.5905039 -0.27576256
0.36468679 3.5899358 -0.27276301
0.35743576 3.5886626 -0.26694536
0.35021672 3.5873885 -0.26112866
0.34322858 3.5868204 -0.25813055
0.33664316 3.5876582 -0.26076746
0.3298558 3.587791 -0.26058698
0.32306749 3.587924 -0.26040626
0.31593645 3.5866494 -0.25459218
0.30916202 3.5867791 -0.25441217
0.3023887 3.5869117 -0.25423193
0.29546547 3.5863383 -0.25123549
0.28842044 3.5850558 -0.24541426
0.28140327 3.5837753 -0.23960304
0.27466288 3.5839055 -0.23942399
0.26780856 3.5833278 -0.23642945
0.26096919 3.5827508 -0.23343587
0.2541458 3.5821698 -0.23044229
0.24742839 3.5822992 -0.23026371
0.24062896 3.5817177 -0.22727108
0.23383954 3.5811369 -0.22427845
0.22706808 3.580555 -0.22128701
0.2202497 3.5792661 -0.21548152
0.21351524 3.5786834 -0.21249032
0.20670484 3.5766859 -0.20387292
0.20001531 3.5761003 -0.20088339
0.19334382 3.5755165 -0.19789386
0.1867362 3.5763438 -0.20053101
0.18009263 3.5764661 -0.20035481
0.17344309 3.5758801 -0.19736624
0.16681048 3.5745819 -0.19156647
0.1602139 3.5725765 -0.18295503
0.15360329 3.5734038 -0.1855917
0.14699966 3.5735226 -0.1854167
0.14033499 3.5750563 -0.1908648
0.13379334 3.5737567 -0.18506694
0.12714267 3.5745816 -0.18770313
0.12058403 3.5739911 -0.18471718
0.11391937 3.5748162 -0.1873529
0.10751659 3.5728025 -0.17874694
0.10100686 3.5722079 -0.17576241
0.094511129 3.5716131 -0.17277813
0.087939367 3.5717251 -0.17260432
0.08126466 3.5725477 -0.17524004
0.074467003 3.5740809 -0.1806848
0.067640372 3.5756145 -0.18612862
0.060903654 3.576436 -0.1887629
0.054285914 3.5765491 -0.1885879
0.047388256 3.5780811 -0.19402981
0.040753469 3.5781913 -0.19385433
0.033809856 3.579725 -0.19929552
0.027161077 3.5798354 -0.19911981
0.020341381 3.5806575 -0.20175195
0.013862535 3.5800562 -0.19876862
0.0074016154 3.5794528 -0.19578576
0.00076083839 3.5795631 -0.19561028
-0.0054731816 3.5782471 -0.18982172
-0.011676222 3.5769296 -0.18403363
-0.017632321 3.574903 -0.17543983
-0.024215251 3.5750062 -0.17526627
-0.030100375 3.5729785 -0.1666739
-0.036419436 3.5723686 -0.16369557
-0.042474553 3.5710492 -0.1579113
-0.048497722 3.5697267 -0.15212822
-0.054754749 3.5691185 -0.14915109
-0.061263755 3.5692186 -0.14897966
-0.067775682 3.5693207 -0.148808
-0.074575499 3.5701373 -0.15144086
-0.08109051 3.5702374 -0.1512692
-0.087912366 3.5710504 -0.15390158
-0.094436362 3.5711508 -0.15372992
-0.10096036 3.5712509 -0.15355802
-0.10781021 3.5720656 -0.15618992
-0.11467509 3.5728765 -0.15882158
-0.12155391 3.5736914 -0.16145253
-0.12774806 3.5730772 -0.15847707
-0.1346419 3.5738897 -0.16110802
-0.14191566 3.5754142 -0.16654062
-0.14735316 3.5733697 -0.15796137
-0.15388922 3.5734673 -0.15778947
-0.16042431 3.5735636 -0.15761757
-0.16774704 3.575089 -0.16304898
-0.17469986 3.5759025 -0.16567826
-0.18207653 3.5774288 -0.17110872
-0.18906741 3.5782399 -0.17373729
-0.19606929 3.579051 -0.17636514
-0.20265235 3.5791464 -0.17619205
-0.20923643 3.5792418 -0.17601895
-0.21626933 3.5800514 -0.17864656
-0.22423179 3.5822937 -0.18687344
-0.23084186 3.5823896 -0.18669963
-0.23745389 3.5824854 -0.18652606
-0.24358223 3.5818641 -0.18355322
-0.2506721 3.582674 -0.18617868
-0.25827378 3.5841982 -0.19160366
-0.26540166 3.5850086 -0.19422865
-0.27203077 3.5851028 -0.1940546
-0.27865982 3.5851989 -0.19388032
-0.28581572 3.5860069 -0.19650459
-0.29352236 3.587533 -0.20192671
-0.30017143 3.5876265 -0.20175219
-0.30682153 3.5877209 -0.20157743
-0.31346762 3.5878143 -0.2014029
-0.32124925 3.5893419 -0.20682311
-0.32790941 3.5894327 -0.20664835
-0.33515316 3.5902431 -0.20927
-0.34181935 3.5903368 -0.209095
-0.34848642 3.5904307 -0.20892
-0.35575825 3.5912416 -0.21154118
-0.36243337 3.5913324 -0.21136618
-0.37034595 3.5928593 -0.21678305
-0.37766075 3.5936711 -0.21940303
-0.38499063 3.5944819 -0.22202277
-0.39104801 3.5938566 -0.2190516
-0.39839184 3.5946658 -0.22167134
-0.40509194 3.5947599 -0.22149539
-0.41245884 3.5955687 -0.22411442
-0.41916192 3.5956631 -0.22393847
-0.42518526 3.5950351 -0.22096825
-0.43188238 3.5951295 -0.22079229
-0.4371801 3.5937819 -0.21502924
-0.44456595 3.594595 -0.21764731
-0.44911206 3.5925288 -0.20909166
-0.45721853 3.594059 -0.21450353
-0.4646253 3.5948722 -0.21712089
-0.47130853 3.5949633 -0.21694565
-0.47501481 3.5921798 -0.20559955
0.47890186 3.578023 -0.26498008
0.47387993 3.5816312 -0.27890921
0.46706879 3.5817733 -0.27872753
0.46125764 3.5839949 -0.28701091
0.45442045 3.5841346 -0.28682876
0.44790393 3.5849712 -0.28946733
0.44043446 3.5837226 -0.28364301
0.43360323 3.5838623 -0.28346086
0.42677307 3.5840018 -0.2832787
0.42051619 3.5855305 -0.2887373
0.41310561 3.5842781 -0.28291464
0.40627247 3.5844178 -0.28273249
0.39943618 3.5845542 -0.28255057
0.39234531 3.5839977 -0.27954888
0.3852663 3.5834391 -0.27654743
0.37820438 3.58288 -0.27354717
0.37139112 3.5830164 -0.27336574
0.36434811 3.5824561 -0.27036548
0.35710639 3.5811977 -0.26454735
0.34989268 3.5799406 -0.25872993
0.34291065 3.5793772 -0.25573134
0.33633405 3.580209 -0.25836921
0.32936901 3.5796452 -0.25537109
0.3225947 3.5797777 -0.25519085
0.31547907 3.5785136 -0.24936628
0.30872172 3.5786457 -0.24918652
0.30211693 3.5794768 -0.25183344
0.29505426 3.5782104 -0.24601078
0.28816307 3.5776424 -0.24301481
0.2810204 3.5756798 -0.23438668
0.27404845 3.5744123 -0.22857594
0.26722521 3.5738401 -0.22558188
0.26041701 3.5732708 -0.22258878
0.25382638 3.5740979 -0.22522593
0.24703111 3.5735252 -0.22223306
0.24016505 3.5722542 -0.21642518
0.23341079 3.5716808 -0.21343303
0.22666743 3.5711043 -0.21044159
0.22000495 3.5712299 -0.21026468
0.21328759 3.570653 -0.20727396
0.2065385 3.5693798 -0.20146918
0.19981727 3.5681002 -0.19566584
0.19316186 3.567522 -0.19267654
0.18656513 3.5683432 -0.19531441
0.17993957 3.5684652 -0.19513869
0.17331401 3.5685873 -0.19496274
0.16668671 3.567306 -0.18916154
0.16009142 3.5660243 -0.18336153
0.15349679 3.5661428 -0.18318677
0.14689916 3.5662613 -0.18301201
0.14027137 3.56708 -0.18564892
0.13370681 3.5664942 -0.18266249
0.12711012 3.5666096 -0.18248796
0.1205155 3.5667281 -0.1823132
0.11397995 3.566143 -0.17932749
0.10746134 3.5655546 -0.17634225
0.1010369 3.5642667 -0.17054653
0.094555251 3.5636766 -0.16756296
0.087997541 3.5637913 -0.16738939
0.081341676 3.5646057 -0.17002559
0.074556686 3.5661216 -0.17547178
0.067975938 3.5662339 -0.17529774
0.061271086 3.567049 -0.17793322
0.054685339 3.5671611 -0.17775893
0.047676295 3.5693808 -0.18601179
0.040919408 3.5701938 -0.18864608
0.033989504 3.5717123 -0.19408798
0.027354717 3.5718224 -0.19391274
0.020549864 3.5726361 -0.1965456
0.014089108 3.5720408 -0.19356227
0.0076413453 3.571445 -0.19057989
0.0012116283 3.570852 -0.18759727
-0.0050030649 3.5695527 -0.18180776
-0.010972783 3.5675454 -0.17321229
-0.017331585 3.5669479 -0.17023158
-0.023676395 3.5663505 -0.16725135
-0.02977024 3.5650461 -0.16146564
-0.035834059 3.563741 -0.15568042
-0.042112902 3.5631423 -0.15270209
-0.048633844 3.5632443 -0.15253019
-0.055153787 3.5633478 -0.15235829
-0.06140171 3.5627456 -0.14938092
-0.067911729 3.5628455 -0.1492095
-0.074423686 3.5629475 -0.14903784
-0.080933675 3.5630474 -0.14886642
-0.087442622 3.5631504 -0.14869475
-0.094264641 3.5639555 -0.15132785
-0.10077964 3.5640557 -0.15115619
-0.10794963 3.5655665 -0.15659261
-0.11447866 3.5656667 -0.15642071
-0.12066664 3.5650606 -0.15344501
-0.12719069 3.5651579 -0.15327334
-0.13406672 3.5659637 -0.15590501
-0.14132668 3.5674744 -0.16133952
-0.14749573 3.5668657 -0.15836453
-0.15364884 3.5662558 -0.15538979
-0.1601759 3.5663531 -0.15521812
-0.16709788 3.567157 -0.15784883
-0.17403395 3.5679591 -0.16047931
-0.18098496 3.5687635 -0.16310859
-0.18837 3.5702729 -0.16854
-0.19493099 3.5703709 -0.16836739
-0.20192708 3.5711732 -0.17099619
-0.20849414 3.5712681 -0.17082357
-0.21641506 3.5734878 -0.17905331
-0.22392 3.5749984 -0.18448138
-0.23099004 3.5757999 -0.18710804
-0.23712717 3.5751877 -0.18413448
-0.2427664 3.5738664 -0.17836094
-0.24934949 3.5739615 -0.17818785
-0.25692946 3.5754714 -0.18361425
-0.2640335 3.5762734 -0.18623996
-0.27115548 3.577075 -0.18886566
-0.27828854 3.5778775 -0.19149089
-0.28596449 3.5793891 -0.19691467
-0.29313445 3.5801914 -0.19953895
-0.29977852 3.5802858 -0.19936442
-0.30641866 3.580379 -0.19919014
-0.31361771 3.5811799 -0.20181394
-0.32083267 3.5819826 -0.20443726
-0.32748479 3.5820763 -0.2042625
-0.33413988 3.5821679 -0.20408797
-0.340792 3.5822613 -0.20391345
-0.34744412 3.5823548 -0.20373869
-0.35469908 3.5831566 -0.20636106
-0.36135727 3.58325 -0.20618629
-0.36925614 3.5847597 -0.21160412
-0.37592721 3.5848546 -0.21142888
-0.384507 3.5870757 -0.21964169
-0.39055818 3.5864592 -0.21667027
-0.39724129 3.5865512 -0.21649504
-0.40392548 3.5866451 -0.21631956
-0.41127735 3.5874486 -0.21893907
-0.41864133 3.5882511 -0.22155857
-0.42465562 3.587631 -0.21858811
-0.42996407 3.5863018 -0.21282363
-0.43593842 3.5856829 -0.20985413
-0.44260257 3.5857744 -0.20967937
-0.4492656 3.5858681 -0.20950437
-0.45736939 3.5873814 -0.21491718
-0.46404749 3.5874753 -0.21474195
-0.47072458 3.5875673 -0.21456671
-0.47442251 3.5848117 -0.20321941
0.48374152 3.5677035 -0.25145602
0.47951156 3.5726447 -0.27104497
0.4737699 3.574842 -0.27933097
0.4669587 3.5749812 -0.27914953
0.4611491 3.5771809 -0.28743434
0.45398539 3.5766344 -0.28443003
0.44747376 3.5774622 -0.28706956
0.44001549 3.5762274 -0.28124452
0.43349284 3.5770552 -0.28388381
0.42636609 3.5765064 -0.28088069
0.42011702 3.578018 -0.28634071
0.41327477 3.5781579 -0.28615832
0.40643257 3.5782976 -0.28597593
0.39906031 3.5770614 -0.28015304
0.39223206 3.5771978 -0.27997112
0.38515627 3.576647 -0.27696943
0.37833399 3.5767837 -0.27678776
0.37150878 3.57692 -0.27660608
0.36446089 3.5763657 -0.27360582
0.35699093 3.5744367 -0.2649672
0.34977847 3.5731945 -0.25914884
0.34259599 3.5719509 -0.25333118
0.33583069 3.5720835 -0.25315118
0.32925391 3.5729051 -0.25578952
0.32230002 3.5723493 -0.2527914
0.3153643 3.5717895 -0.24978399
0.3084414 3.571234 -0.24678659
0.301691 3.5713632 -0.2466073
0.29464239 3.5701153 -0.24079323
0.28776538 3.569555 -0.23779726
0.28077173 3.5683031 -0.23198509
0.27393171 3.5677433 -0.22899008
0.26722324 3.5678687 -0.22881198
0.26040721 3.5673084 -0.22581744
0.25360715 3.5667448 -0.2228241
0.24672636 3.5654881 -0.21701479
0.23987758 3.5642307 -0.21120644
0.23313543 3.5636652 -0.20821452
0.22648096 3.5637906 -0.20803785
0.21982345 3.5639153 -0.20786095
0.21306056 3.5626533 -0.20205522
0.20632571 3.561394 -0.19625044
0.19962181 3.560132 -0.19044614
0.19297858 3.5595617 -0.18745661
0.18639867 3.5603745 -0.19009519
0.1797871 3.5604963 -0.18991995
0.17317545 3.5606141 -0.18974471
0.16656616 3.5600412 -0.18675637
0.15998447 3.5580826 -0.17814231
0.15343541 3.5568137 -0.1723423
0.1468465 3.5576267 -0.17498088
0.14024052 3.5584362 -0.17761922
0.13366082 3.5585513 -0.17744493
0.1270802 3.5586696 -0.17727065
0.12049749 3.558785 -0.17709637
0.11404136 3.5575125 -0.17129898
0.10747465 3.5576277 -0.17112517
0.10106447 3.5563536 -0.16532946
0.094515763 3.5564682 -0.16515613
0.088057272 3.5558867 -0.16217208
0.081312999 3.5573881 -0.16762018
0.074755237 3.5574999 -0.16744661
0.068197474 3.5576117 -0.16727328
0.061642721 3.5577245 -0.16709995
0.054818422 3.5592232 -0.17254567
0.047968134 3.5607233 -0.17799115
0.040935695 3.5629215 -0.18624473
0.034167632 3.5637255 -0.18887925
0.027549848 3.5638356 -0.18870449
0.021103323 3.5632517 -0.18572068
0.014669701 3.5626638 -0.18273759
0.0078816861 3.5634692 -0.18537164
0.001659289 3.562186 -0.17958117
-0.0043269247 3.560205 -0.17098331
-0.010264173 3.558223 -0.16238737
-0.017030269 3.559025 -0.16502213
-0.023356959 3.5584321 -0.16204214
-0.0296707 3.5578401 -0.15906239
-0.035485998 3.5558562 -0.1504693
